ply
format ascii 1.0
element vertex 716
property float x
property float y
property float z
property uchar red
property uchar green
property uchar blue
property float nx
property float ny
property float nz
end_header
-2.959900 8.250760 56.107101 29 39 57 -0.636144 -0.717248 0.284387
-3.552710 7.913160 55.321499 27 36 55 -0.976506 -0.110737 0.184863
-3.580810 7.984400 55.021900 19 25 42 -0.910128 -0.293086 0.292859
-3.567590 7.966710 54.996201 20 26 43 -0.987100 0.007189 0.159942
-3.631700 7.969750 54.836601 16 23 36 -0.913067 -0.284570 0.292113
-2.887370 8.290920 56.419102 28 35 50 -0.363866 -0.920365 0.143280
-2.920580 8.326790 56.248798 27 35 52 -0.497692 -0.567151 -0.656233
-3.426360 7.991790 55.649502 29 38 58 -0.993616 0.053487 0.099330
-3.390900 8.108090 55.564400 24 33 51 -0.985180 -0.058618 0.161196
-3.559270 7.979440 55.386200 23 32 50 -0.992987 0.060939 0.101306
-3.469000 8.091280 55.358799 21 28 45 -0.967771 -0.195979 0.158152
-3.575630 8.000420 55.080898 20 25 41 -0.958244 -0.190617 0.213154
-2.740100 8.390900 56.729099 24 30 42 -0.747630 -0.583283 0.317537
-2.919530 8.341740 56.499901 27 34 48 -0.753374 -0.582256 0.305624
-2.958190 8.337430 56.375301 26 33 49 -0.296160 -0.954149 -0.043465
-3.026540 8.343030 56.197201 28 37 53 -0.527944 -0.811214 0.251409
-3.065850 8.312930 56.091301 29 37 55 -0.626488 -0.723340 0.290330
-3.418750 8.128090 55.650200 25 34 53 -0.993310 0.048108 0.104976
-3.421150 8.173380 55.515301 19 26 41 -0.868133 -0.417473 -0.268444
-3.510150 8.158140 55.351299 16 22 36 -0.921226 -0.277029 -0.273125
-3.455970 8.201470 55.362701 16 23 37 -0.976349 -0.110658 0.185736
-3.554440 8.075380 55.202400 18 24 39 -0.961463 -0.184700 0.203655
-3.554440 8.075380 55.202400 18 24 39 -0.961463 -0.184700 0.203655
-3.586020 8.136470 55.096199 15 19 33 -0.976707 -0.105009 0.187126
-3.327690 8.256030 55.820000 25 33 52 -0.968758 -0.132266 0.209797
-3.319520 8.262620 55.825802 25 33 52 -0.968557 -0.133263 0.210094
-3.441110 8.166910 55.577999 21 29 44 -0.606675 -0.732824 -0.308081
-3.384810 8.333210 55.415199 14 20 34 -0.897852 -0.337529 0.282730
-3.686380 8.196450 55.038399 13 16 29 -0.974814 -0.092816 0.202788
0.099087 3.016670 51.476002 28 27 27 -0.900217 -0.023363 0.434815
-0.641127 4.894510 51.625702 38 32 31 -0.383590 0.377474 -0.842836
-0.606148 4.938170 51.583698 26 25 24 -0.883311 -0.158833 -0.441060
-0.814106 6.813230 53.534401 35 46 70 -0.960307 0.136315 -0.243367
-2.099920 7.111310 56.322701 33 43 64 -0.917653 -0.176957 -0.355808
-1.684260 8.076180 55.860600 24 32 50 -0.874708 0.074073 -0.478957
-1.370370 11.211500 49.880600 18 26 43 -0.713036 0.033846 -0.700311
-1.295470 11.210100 49.890301 18 27 44 -0.722698 0.044434 -0.689734
-1.441920 11.215600 49.873402 18 26 42 -0.714849 0.033882 -0.698458
-1.424890 11.233900 49.873299 18 26 42 -0.752498 0.091473 -0.652212
-1.426900 11.249000 49.932301 17 25 40 -0.763242 0.074931 -0.641753
-1.436720 11.302100 49.864498 17 24 40 -0.678820 0.301504 -0.669551
0.076141 3.043900 51.579498 71 74 70 -0.946019 0.062898 -0.317951
0.093419 3.119210 51.571201 27 30 27 -0.714711 0.351892 -0.604451
-0.694528 3.456250 51.411098 74 79 82 -0.947413 0.130038 -0.292402
-0.641590 5.065840 51.286800 17 18 18 -0.640407 -0.713455 0.284360
-0.766951 7.074910 51.096699 15 19 34 -0.862448 0.497492 -0.093195
-1.576240 6.985710 55.919701 36 48 74 -0.780007 0.550514 -0.297530
-1.648840 7.099200 56.225498 35 49 71 -0.963861 0.257140 0.069646
-2.508270 8.171540 51.487499 18 27 43 -0.409229 0.359689 -0.838544
-2.136160 7.054920 56.299000 46 57 73 -0.890590 -0.131801 -0.435290
-0.736026 11.344100 49.724800 20 29 47 0.042099 -0.397753 -0.916526
-1.169310 11.090900 49.767200 19 28 45 -0.694356 -0.033759 -0.718839
-0.832575 11.354400 49.757801 20 29 47 -0.618745 -0.097644 -0.779500
-0.730644 11.468200 49.729301 21 30 50 -0.611977 -0.105014 -0.783872
-0.783608 11.406900 49.710800 21 30 49 -0.601132 -0.115671 -0.790734
-1.275200 11.036100 49.776199 19 27 46 -0.724032 0.042447 -0.688460
-1.255800 11.075000 49.836201 19 27 47 -0.722670 0.046359 -0.689637
-1.005360 11.270000 49.772301 20 29 47 -0.677151 -0.047181 -0.734330
-0.932026 11.352100 49.773300 20 29 47 -0.660314 -0.066360 -0.748052
-1.297900 11.127600 49.890598 18 26 44 -0.724313 0.047787 -0.687813
-1.323060 11.082000 49.829601 19 27 45 -0.722935 0.044676 -0.689471
-1.123940 11.240000 49.820099 19 28 47 -0.682848 -0.042272 -0.729336
-2.291080 8.251380 57.197399 25 33 49 -0.989861 -0.130587 0.055883
-1.373930 11.400300 49.992699 15 22 37 -0.678132 0.301708 -0.670156
-2.376080 8.172410 57.335999 64 75 87 -0.922649 -0.027850 -0.384633
0.073094 3.080870 51.629601 69 72 70 -0.977789 0.016474 -0.208946
-0.721112 3.573190 51.382599 27 31 36 -0.950912 0.088955 -0.296402
-0.985934 4.186430 51.349400 25 23 23 0.028929 -0.250464 -0.967693
-0.959654 4.340260 51.270199 17 17 17 -0.632146 0.097073 -0.768745
-0.623635 4.919770 51.424702 19 19 19 -0.858443 0.452664 -0.241184
-1.525360 7.186740 56.209400 28 41 63 -0.573557 0.620546 -0.534748
-0.714934 3.382850 51.417900 100 105 108 -0.836845 0.100706 -0.538098
0.090470 8.764140 49.973301 24 35 58 0.038858 -0.933699 -0.355944
-2.325190 8.303280 57.264900 25 34 51 -0.970823 -0.234431 0.050439
-1.773270 10.867200 49.950699 15 25 41 -0.817230 0.316997 -0.481299
-1.820600 10.983800 49.999901 13 22 34 -0.809023 0.283222 -0.515040
-3.443280 8.215760 55.647701 23 31 49 -0.865674 -0.422605 -0.268353
-3.469210 8.225540 55.519501 20 27 42 -0.984646 0.174538 0.003072
-3.418010 8.321420 55.677601 20 26 42 -0.938993 -0.015548 -0.343586
-3.473240 8.311060 55.516701 16 22 37 -0.974281 0.224942 -0.013353
-1.276320 11.169700 49.951801 17 26 42 -0.725662 0.050073 -0.686227
-0.760071 6.302090 52.862499 88 97 107 0.127490 -0.188430 -0.973776
0.524628 11.535800 49.257801 12 17 25 -0.823064 0.236782 -0.516237
0.573757 11.508800 49.270199 12 17 26 -0.819429 0.257131 -0.512269
0.600869 11.693300 49.346600 12 16 24 -0.807866 0.246789 -0.535208
0.892491 12.211100 49.570900 13 17 25 -0.531661 0.060640 -0.844784
0.592318 2.720360 49.516102 69 72 79 0.276421 -0.948844 -0.152596
0.746616 2.747310 49.595200 32 35 44 0.512157 -0.853703 0.094269
0.745494 2.749890 49.592701 32 35 44 0.462514 -0.886122 0.029479
0.705126 2.684150 49.609001 43 46 54 0.160245 -0.987037 0.008917
0.591506 2.717790 49.605099 39 42 49 0.150140 -0.982596 -0.109374
1.217040 3.059690 49.253601 42 44 50 0.320167 -0.928405 -0.188567
1.589020 3.002700 49.390400 37 39 46 0.535382 -0.843666 -0.039925
1.354370 2.961000 49.384499 43 45 53 0.410816 -0.899678 -0.147684
1.967480 2.937910 49.509499 63 65 67 0.031029 -0.961612 0.272655
1.664110 2.994990 49.427200 37 39 46 0.216347 -0.947355 -0.236033
1.588560 3.009590 49.473701 35 38 47 -0.208951 -0.977888 0.008686
1.484560 2.549050 50.042500 35 38 45 0.608307 -0.793608 0.012188
1.432890 2.594600 50.051899 37 39 47 -0.496973 -0.707442 0.502537
1.433930 2.531750 50.017200 37 40 48 0.188060 -0.903148 0.385949
1.273380 2.585910 50.043499 29 32 40 0.719219 -0.650396 -0.244354
1.291640 2.553200 50.073399 29 33 40 0.803762 -0.564132 -0.189003
2.027040 2.981880 49.512798 62 64 65 0.051452 -0.578528 0.814038
2.032430 2.949420 49.544498 66 68 69 0.112829 -0.695480 0.709632
2.013490 3.025830 49.557098 42 45 52 0.450378 -0.700493 0.553596
1.963940 2.997550 49.540699 42 46 52 -0.011954 -0.778516 0.627511
2.118010 3.067170 49.571400 42 45 50 0.433612 -0.407702 0.803592
1.976600 3.020280 49.609200 42 45 53 -0.045075 -0.732670 0.679090
2.030520 3.042450 49.632099 42 45 53 0.014620 -0.742993 0.669140
2.193150 3.098830 49.599800 41 43 49 -0.315954 -0.128839 0.939986
2.230240 3.123910 49.619202 37 40 47 0.371804 -0.912196 -0.172225
2.180010 3.093710 49.605999 41 44 49 0.395143 -0.612728 0.684417
2.115000 3.099510 49.632801 39 42 50 0.500282 -0.373268 0.781274
1.967300 2.968760 49.782799 38 38 45 0.262598 -0.958833 -0.108082
0.962896 2.429250 50.772900 27 29 35 0.570909 -0.817615 -0.074621
0.946990 2.366190 50.828499 29 31 37 0.585685 -0.747936 0.312353
0.894199 2.377990 50.860901 31 33 39 -0.158454 -0.852697 0.497795
2.140720 2.948110 50.105701 35 38 42 0.410347 -0.872680 -0.264662
2.192700 2.723640 50.375198 37 40 46 0.692771 -0.390545 0.606253
0.828941 2.423400 50.851799 24 27 32 -0.182727 -0.908850 0.374970
0.875213 2.403870 50.904099 26 29 34 -0.260325 -0.875446 0.407216
0.826889 2.442840 50.915901 20 22 27 0.613184 -0.769351 0.179177
2.224810 2.766500 50.432098 35 38 44 0.302235 -0.948167 -0.098153
1.008240 2.472910 50.969898 29 32 37 -0.289497 -0.912637 0.288592
2.403170 2.917970 50.336201 34 37 42 0.311255 -0.935729 -0.165927
2.321200 2.969080 50.212399 43 45 52 -0.158831 -0.973061 0.167107
2.322910 2.921600 50.281300 40 42 48 0.528182 -0.835934 0.149127
2.396180 2.922990 50.411499 29 31 35 0.437912 -0.853555 -0.282269
2.349010 2.940440 50.353100 33 35 41 0.542888 -0.827316 0.144296
2.326430 2.763250 50.652401 32 33 37 0.817263 -0.574287 0.047692
1.859820 2.648390 50.861000 32 35 38 0.149225 -0.981477 -0.120148
1.868840 2.625880 50.880501 32 35 38 0.281002 -0.949002 0.142944
2.483190 2.929470 50.471298 33 35 40 0.205502 -0.976357 0.067057
2.273190 2.740930 50.701599 36 38 43 0.264281 -0.946375 0.185821
2.335170 2.755250 50.740002 31 33 36 0.797738 -0.570886 -0.194174
1.856790 2.614000 51.020699 21 24 27 0.518059 -0.832230 0.197504
1.577380 2.565740 51.140598 27 30 33 0.101120 -0.978288 0.180905
1.254320 2.563940 51.087299 34 37 40 0.537006 -0.672282 0.509570
2.539570 3.012830 50.472401 31 33 37 0.412205 -0.897240 -0.158266
2.394200 2.813970 50.814602 33 34 38 0.091306 -0.932290 0.349998
2.350100 2.729190 50.930500 32 34 36 0.642624 -0.752323 -0.145063
2.221800 2.720250 50.928299 29 31 34 0.658838 -0.742902 -0.118443
2.151580 2.664770 50.925499 32 34 38 0.644732 -0.758695 -0.093288
2.137740 2.698640 50.987900 25 28 30 0.728017 -0.685532 -0.006147
1.808720 2.608670 51.071602 23 25 29 0.646667 -0.652251 0.395461
1.822300 2.629270 51.060001 22 25 28 0.612096 -0.742580 0.271871
1.614750 2.610370 51.163601 27 29 32 0.361631 -0.809533 0.462471
1.580390 2.602310 51.205299 25 27 31 0.078031 -0.587473 0.805473
1.564620 2.610300 51.198898 25 27 30 0.267773 -0.931021 -0.247987
2.652870 2.905650 50.734299 40 41 44 0.402002 -0.852959 -0.332950
2.451560 2.823090 50.849998 32 34 37 0.718236 -0.679422 0.150078
2.303480 2.753050 50.955601 26 28 30 0.721115 -0.661487 -0.205980
2.004600 2.651100 51.171299 23 25 28 0.399701 -0.916345 0.023490
1.580710 2.654070 51.240002 25 27 31 0.267972 -0.943619 -0.194354
2.153210 2.737190 51.177898 17 18 21 0.396307 -0.295645 0.869215
2.115820 2.660630 51.193901 18 19 22 0.543667 -0.353424 0.761260
2.060330 2.646420 51.229698 20 22 24 0.262852 -0.711991 0.651136
2.630140 3.530150 50.323601 30 27 26 0.887171 -0.454536 -0.079533
2.693360 3.514230 50.339401 44 38 36 0.736134 -0.676771 0.009402
2.192500 2.781710 51.191002 15 15 17 0.582288 0.022050 0.812684
2.081370 2.711420 51.267799 17 17 19 0.017797 -0.997546 -0.067713
2.012330 2.605850 51.366199 24 24 27 0.082477 -0.732271 0.676000
2.660680 3.644540 50.312000 77 62 57 0.761842 -0.610618 -0.216200
2.601990 3.487120 50.412701 29 27 25 0.786700 -0.609591 -0.097482
2.556070 3.504900 50.450001 31 28 26 0.848691 -0.522455 -0.082245
1.518970 2.737640 51.471802 28 22 22 0.395478 -0.912964 0.100469
1.567720 2.733530 51.514198 35 25 24 0.478541 -0.815420 0.325712
2.649080 3.804220 50.256401 110 83 75 0.752809 -0.619044 -0.223750
2.658980 3.698010 50.366402 104 76 68 0.703632 -0.655395 -0.274517
2.560820 3.614840 50.434200 60 41 37 0.944782 -0.094290 0.313840
2.587510 3.591670 50.461300 66 47 43 0.819971 -0.554874 -0.140577
2.559060 3.551500 50.549900 67 49 45 0.812550 -0.569826 0.122721
2.498660 3.502740 50.528702 33 25 24 0.792434 -0.609887 0.009295
2.452170 3.513260 50.571800 35 23 23 0.760938 -0.630089 -0.154796
2.276340 3.290750 50.849098 42 27 26 0.792607 -0.578462 -0.192760
2.255730 3.232490 50.949100 60 41 38 0.937931 -0.041281 0.344357
2.258020 2.914030 51.230099 34 21 19 0.641705 -0.755380 -0.132724
2.258020 2.914030 51.230099 34 21 19 0.641705 -0.755380 -0.132724
2.299390 2.848620 51.375599 61 37 29 0.591563 -0.804909 -0.046627
1.564980 2.757070 51.572201 48 30 27 0.621363 -0.744599 0.243888
1.511090 2.727130 51.556999 38 25 24 -0.117095 -0.726016 0.677635
0.422848 2.920400 51.584702 25 26 28 -0.425896 -0.819650 0.383126
2.611140 3.961970 50.179100 118 87 78 0.782702 -0.590782 -0.195843
2.619370 3.678670 50.433498 94 75 71 0.727614 -0.680218 0.088779
2.621930 3.745130 50.356602 105 74 66 0.688181 -0.681044 -0.250173
2.592370 3.635820 50.526299 100 83 79 0.675491 -0.706937 0.209648
2.507560 3.572680 50.583698 69 48 40 0.751457 -0.658218 -0.045403
2.359090 3.410910 50.765301 53 32 27 0.858208 0.024842 0.512701
2.329540 3.377210 50.843700 77 48 41 0.788940 -0.603666 -0.114720
2.407770 2.931910 51.334400 108 71 58 0.755742 -0.639882 0.139306
2.288830 3.053440 51.172699 80 54 47 0.690877 -0.707277 -0.149827
2.332800 2.910970 51.351799 93 61 51 0.549854 -0.827712 -0.112044
2.315290 2.772970 51.485100 91 64 54 0.170111 -0.951944 -0.254684
2.151720 2.752820 51.519600 66 45 39 0.171410 -0.945148 -0.278054
2.150170 2.764780 51.585701 103 85 76 -0.062487 -0.993343 -0.096778
1.746250 2.858250 51.519901 70 45 39 -0.216469 -0.576301 0.788047
1.610460 2.926420 51.491001 69 41 33 0.279810 -0.505419 0.816246
0.671347 2.954080 51.673302 28 29 31 -0.360876 -0.689137 0.628378
0.622986 2.903220 51.672501 22 22 25 0.482813 -0.683471 0.547503
0.421012 2.995920 51.603699 25 25 28 0.697515 -0.575137 0.427423
0.365387 3.017770 51.621498 27 29 31 0.623016 -0.336166 0.706289
2.633650 4.053630 50.216999 128 94 82 0.764213 -0.617575 -0.185957
2.622320 3.954870 50.291500 127 93 79 0.863330 -0.490909 -0.116920
2.622410 3.827190 50.455299 135 96 79 0.875430 -0.478455 -0.068580
2.584930 3.781930 50.437801 124 87 77 0.794033 -0.607690 0.014971
2.559650 3.646780 50.583801 113 77 65 0.817356 -0.576126 0.002762
2.415060 3.592800 50.691200 97 63 52 0.780126 -0.303592 0.547024
2.370560 3.529700 50.783901 115 75 59 0.883614 -0.007795 0.468151
2.364530 3.546660 50.768902 114 74 58 0.883318 -0.007276 0.468718
2.349130 3.472900 50.883099 122 78 60 0.863420 0.044680 0.502503
2.341300 3.430940 50.900002 115 73 56 0.798501 -0.571506 -0.189150
2.466420 2.749520 51.639702 129 84 64 0.718014 -0.695832 -0.016540
2.405430 2.779850 51.595402 147 124 111 0.036192 -0.977706 -0.206834
2.218930 2.799520 51.590698 106 67 51 0.400067 -0.893615 -0.203465
2.207270 2.816450 51.655300 142 122 110 0.042504 -0.998408 -0.037075
1.672450 2.946190 51.537201 90 52 38 0.188156 -0.161461 0.968776
1.622200 3.017670 51.547798 110 63 45 -0.002868 0.120678 0.992688
1.448420 2.912050 51.643398 97 57 43 0.084147 -0.407789 0.909191
0.921300 3.023640 51.666901 28 27 27 0.881660 -0.465024 -0.080179
0.882294 2.972920 51.745201 30 30 30 0.863855 -0.144270 0.482639
0.030847 3.181900 51.583599 37 37 37 -0.287801 -0.789458 0.542150
2.693540 4.035420 50.316502 134 97 82 0.883464 -0.460498 -0.086214
2.693540 4.035420 50.316502 134 97 82 0.883464 -0.460498 -0.086214
2.693540 4.035420 50.316502 134 97 82 0.883464 -0.460498 -0.086214
2.698810 3.888490 50.496201 140 101 83 0.872651 -0.476768 -0.105702
2.698810 3.888490 50.496201 140 101 83 0.872651 -0.476768 -0.105702
2.698810 3.888490 50.496201 140 101 83 0.872651 -0.476768 -0.105702
2.608510 3.743540 50.582298 136 95 77 0.882267 -0.463165 -0.084166
2.578800 3.728720 50.607700 135 95 76 0.852678 -0.504402 -0.136084
2.565570 3.650230 50.728401 138 94 75 0.847831 -0.515905 -0.122570
2.372300 3.642180 50.785500 135 89 70 0.840083 -0.516421 -0.166043
2.390120 3.468850 50.995701 138 89 68 0.781772 -0.589210 -0.204119
2.412000 3.407420 51.049801 137 88 68 0.783472 -0.588584 -0.199351
2.486700 2.933370 51.539902 142 93 72 0.714967 -0.697452 -0.048817
1.672420 3.050480 51.559399 124 72 50 0.138726 0.141137 0.980222
1.620650 3.068520 51.584301 130 81 60 0.062066 -0.642236 0.763990
1.545790 3.052260 51.598900 129 78 56 0.037102 -0.432735 0.900757
1.463780 2.998090 51.662300 128 80 59 0.116563 -0.459507 0.880492
1.221170 3.113850 51.597900 78 51 41 -0.319670 -0.620127 0.716417
1.112240 3.153230 51.562302 43 31 28 0.447071 -0.660347 0.603382
0.988529 3.073940 51.699799 24 23 21 0.878632 -0.472177 0.071096
0.893428 3.070160 51.738800 27 26 26 0.853061 -0.519494 -0.049117
0.852126 2.997360 51.779099 30 30 31 -0.263274 -0.669212 0.694869
0.369620 3.115170 51.712502 30 30 31 0.231550 -0.650814 0.723066
0.316317 3.140400 51.734600 31 31 33 -0.015985 -0.912432 0.408915
2.671200 4.469090 49.995602 126 109 100 0.426297 -0.847775 0.315512
2.689950 3.927880 50.517200 143 101 82 0.933497 -0.050260 0.355045
2.678240 3.829140 50.603500 147 104 84 0.866590 -0.485011 -0.117410
2.673450 3.798790 50.674099 150 105 85 0.858232 -0.502662 -0.103770
2.651330 3.742760 50.777500 150 105 84 0.851029 -0.511962 -0.116811
2.482590 3.792630 50.748100 144 99 77 0.781903 -0.591482 -0.196918
2.398070 3.613930 50.886299 142 93 72 0.824436 -0.534956 -0.184735
2.418200 3.584040 51.010799 150 100 78 0.778598 -0.593066 -0.205079
2.386010 3.536560 51.003201 144 94 73 0.821281 -0.545835 -0.166016
1.652410 3.147390 51.559399 146 88 61 0.240928 0.085832 0.966740
1.597130 3.138280 51.598000 148 93 65 -0.088041 -0.517124 0.851370
1.435040 3.113640 51.664600 147 96 71 -0.440486 -0.546775 0.712046
1.325360 3.145720 51.622799 119 77 59 -0.403363 -0.546594 0.733849
1.201140 3.199780 51.634201 75 49 39 0.595153 -0.450985 0.665135
1.210100 3.211780 51.596199 77 52 43 -0.319090 -0.585407 0.745306
1.092010 3.219340 51.616501 36 26 24 0.492451 -0.558653 0.667382
1.147720 3.166670 51.620201 53 36 30 0.624346 -0.458611 0.632351
2.738070 4.452900 50.139999 134 113 104 0.860548 -0.447662 0.243015
2.750360 4.422760 50.172699 135 114 106 0.516464 -0.755257 0.403550
2.656960 4.297020 50.250599 139 100 83 0.900912 -0.433275 -0.025121
2.679220 4.268450 50.329300 142 102 84 0.930028 -0.364443 0.047212
2.720830 3.971740 50.630600 145 102 82 0.925079 -0.378382 0.032488
2.729650 3.995060 50.609699 145 102 81 0.844197 -0.515855 -0.145688
2.734730 3.953990 50.643902 145 102 81 0.895348 -0.443466 -0.041099
2.714980 3.926150 50.703701 149 105 84 0.633224 -0.713920 -0.298908
2.703840 3.873760 50.756802 151 107 86 0.841978 -0.517675 -0.151938
2.674420 3.882680 50.726700 152 107 85 0.871636 -0.471382 -0.134351
2.569380 3.800150 50.865002 151 106 83 0.751253 -0.660010 0.002265
2.559270 3.729910 50.917099 152 106 83 0.787279 -0.585669 -0.192831
2.447560 3.772520 50.815601 148 100 78 0.693398 -0.705829 -0.144933
2.422730 3.718360 50.910702 152 102 80 0.682258 -0.719722 -0.128546
2.391040 3.539180 51.098099 152 102 79 0.730860 -0.637401 -0.244056
2.357940 3.606890 51.085499 155 103 80 0.296225 -0.938984 -0.174815
2.352020 3.451120 51.253799 156 104 79 0.867882 -0.483058 -0.115911
2.358350 3.489360 51.146702 152 101 77 0.814507 -0.544703 -0.199693
1.957370 3.395510 51.382099 149 93 65 0.616473 -0.785623 -0.052515
1.998020 3.372710 51.434898 152 97 68 0.641076 -0.665666 0.381982
1.850850 3.389770 51.403198 150 93 64 0.775941 -0.630747 -0.008565
1.888350 3.392020 51.436501 153 97 68 0.723018 -0.676954 0.137762
1.867620 3.410210 51.348499 146 91 62 0.588374 -0.806976 -0.051045
1.764340 3.328430 51.465698 151 95 66 0.620421 -0.748107 0.235400
1.729370 3.325090 51.518101 159 102 73 0.667564 -0.740785 0.074800
1.628420 3.224230 51.567200 154 97 68 -0.081231 -0.473126 0.877242
1.588800 3.340700 51.560699 163 107 78 0.657786 -0.742425 0.126978
1.472920 3.160580 51.675400 155 103 76 -0.379091 -0.403515 0.832746
1.317460 3.273760 51.671600 123 82 64 0.163347 -0.604923 0.779350
1.361030 3.229580 51.688000 136 91 69 -0.033050 -0.500767 0.864951
1.325360 3.252360 51.610500 113 78 62 -0.140652 -0.602123 0.785917
1.051760 3.214080 51.750401 28 22 20 0.880639 -0.461974 -0.105143
0.900107 3.157160 51.784100 25 24 23 0.308942 -0.932395 0.187604
0.004846 3.404750 51.766701 34 32 32 -0.387176 -0.370159 0.844439
2.744550 4.463220 50.217098 138 109 99 0.348096 -0.828392 0.438858
2.688360 4.465480 50.252899 146 109 94 0.921786 -0.342938 0.180846
2.733740 3.997250 50.675400 151 108 86 0.764606 -0.603658 -0.225774
2.631050 3.837960 50.867699 152 106 85 0.671703 -0.735050 -0.092282
2.545660 3.856730 50.867001 153 109 85 0.545229 -0.762281 -0.348789
2.493150 3.792100 50.906200 154 106 84 0.682072 -0.719945 -0.128284
2.437550 3.768570 51.030102 157 108 84 0.820754 -0.571280 0.001633
2.415680 3.663150 51.120602 157 108 84 0.737595 -0.629404 -0.244551
2.371450 3.624130 51.176102 156 105 80 0.676667 -0.722107 -0.143819
2.361630 3.537590 51.297298 158 105 79 0.823328 -0.566507 0.034654
2.050290 3.513650 51.354198 157 102 72 0.778980 -0.620626 -0.089514
2.030160 3.469650 51.441502 157 105 76 0.478545 -0.820598 0.312432
1.816780 3.446630 51.408001 154 98 68 0.702031 -0.704010 0.107339
1.816740 3.448890 51.406200 153 98 69 0.717240 -0.682963 0.138304
1.782080 3.362850 51.523701 161 105 75 0.620998 -0.747406 0.236106
1.682470 3.406320 51.583199 170 114 84 0.594272 -0.315929 0.739615
1.600800 3.343420 51.649799 168 113 83 0.617275 -0.377786 0.690108
1.547170 3.326840 51.625500 163 109 78 0.871769 -0.179568 0.455823
1.434500 3.353650 51.684799 149 100 75 0.241000 -0.656692 0.714616
1.479110 3.358930 51.637501 155 103 75 0.221027 -0.604677 0.765188
1.371240 3.305280 51.684898 138 92 70 0.229902 -0.658366 0.716728
1.320330 3.320250 51.713600 114 77 59 0.207030 -0.712910 0.669998
1.280180 3.308300 51.711498 100 68 53 0.040179 -0.684808 0.727615
1.333500 3.286860 51.688702 127 85 65 0.259201 -0.665892 0.699574
1.361770 3.281230 51.703800 135 91 69 0.110274 -0.685641 0.719539
1.265410 3.341570 51.735298 88 60 47 -0.003729 -0.693727 0.720229
1.267170 3.300480 51.690399 94 63 50 0.110370 -0.663514 0.739978
1.048440 3.237940 51.804100 35 29 28 0.473301 -0.783187 0.403242
2.801550 4.480790 50.245701 138 115 107 -0.279362 -0.772599 0.570129
2.768960 4.526630 50.258801 144 112 101 -0.215234 -0.775122 0.594020
2.755760 4.530440 50.269798 147 112 101 -0.140826 -0.849019 0.509249
2.741520 4.333280 50.470901 156 116 96 0.611844 -0.732088 -0.299489
2.708150 4.123950 50.635399 157 113 92 0.605088 -0.735661 -0.304420
2.597720 3.933210 50.845699 154 108 86 0.546818 -0.822345 0.157287
2.657790 3.910950 50.896099 155 110 89 0.731136 -0.681814 -0.023876
2.597640 3.856910 50.964802 157 112 90 0.619426 -0.784743 -0.022130
2.620340 3.870370 50.982201 159 114 93 0.597567 -0.801774 -0.008519
2.550920 3.791920 51.116001 165 121 98 0.348131 -0.932064 -0.100310
2.539770 3.817560 51.010601 159 114 90 0.493142 -0.860599 -0.127201
2.503920 3.750050 51.104198 160 115 92 0.363220 -0.929990 0.056487
2.438420 3.725210 51.164700 157 109 85 0.627217 -0.778605 -0.019297
2.399380 3.646010 51.254501 156 107 83 0.695393 -0.713029 0.089544
2.284540 3.655300 51.255600 159 106 79 0.802084 -0.563561 -0.197637
2.105890 3.604910 51.342300 161 107 78 0.778580 -0.625384 -0.052032
2.081640 3.558740 51.430000 165 110 80 0.788366 -0.610624 -0.074953
1.961580 3.522000 51.516899 164 110 81 0.188235 -0.979841 -0.066927
1.972970 3.499780 51.456699 160 106 77 0.022080 -0.963810 0.265676
1.869820 3.457670 51.525299 163 108 78 -0.029153 -0.988209 0.150308
1.864510 3.483290 51.554199 167 110 79 0.679216 -0.729990 0.076026
1.819750 3.489900 51.508499 165 108 78 0.706573 -0.698331 0.114406
1.819750 3.489900 51.508499 165 108 78 0.706573 -0.698331 0.114406
1.660280 3.474040 51.605000 168 113 83 -0.092372 -0.815563 0.571249
1.589260 3.414400 51.656502 161 108 78 0.086507 -0.705395 0.703516
1.629400 3.419670 51.611698 170 115 84 -0.025956 -0.844301 0.535241
1.546540 3.376290 51.665100 158 106 77 0.266332 -0.682977 0.680154
1.488720 3.381870 51.699501 148 98 72 0.127796 -0.717135 0.685118
1.380130 3.418440 51.751900 118 79 61 0.117098 -0.613661 0.780838
1.433390 3.399430 51.726101 135 90 68 0.082850 -0.643994 0.760531
1.359160 3.372540 51.703400 123 83 63 0.072266 -0.645813 0.760068
1.373940 3.342950 51.734699 128 87 66 0.142965 -0.749464 0.646424
1.323180 3.370560 51.752201 105 71 55 -0.007977 -0.668874 0.743333
1.377810 3.377700 51.778999 121 82 63 0.114201 -0.610041 0.784097
1.262730 3.383550 51.779400 80 55 44 0.060515 -0.674856 0.735464
1.208850 3.357790 51.761501 64 46 38 0.281670 -0.688966 0.667824
2.845040 4.551440 50.331902 144 118 108 -0.268230 -0.846367 0.460126
2.825370 4.522490 50.304501 143 116 106 -0.120892 -0.792567 0.597681
2.825450 4.528330 50.384998 152 118 104 -0.228360 -0.972411 0.047630
2.794780 4.451040 50.460999 159 120 103 0.311408 -0.880684 -0.356960
2.740990 4.140230 50.746899 163 118 98 0.730197 -0.682878 -0.022140
2.741200 4.141850 50.743500 163 118 98 0.634815 -0.762423 -0.125383
2.727250 3.970340 50.904202 161 116 95 0.687016 -0.668147 -0.285638
2.658800 3.890020 51.004299 162 115 93 0.887318 -0.456695 0.064004
2.600790 3.850820 51.049999 164 120 98 0.459101 -0.888243 -0.015851
2.650570 3.900790 51.074200 166 120 98 0.586089 -0.807936 -0.061148
2.558270 3.862440 51.154999 167 121 99 0.731414 -0.651578 0.201196
2.499570 3.755640 51.178101 164 118 95 0.166419 -0.986014 -0.009011
2.493740 3.788860 51.170300 164 118 94 0.712740 -0.681804 0.164755
2.524970 3.815520 51.097599 165 119 96 0.257054 -0.928223 -0.268934
2.463280 3.741400 51.240700 162 114 91 0.631490 -0.747624 0.205616
2.424560 3.731230 51.298500 162 112 88 0.729562 -0.666394 0.153813
2.353180 3.712690 51.327000 161 110 85 0.335606 -0.928802 -0.157146
2.368590 3.750850 51.298698 161 112 88 0.503033 -0.862052 -0.061840
2.358730 3.665360 51.308800 160 107 80 0.747226 -0.655680 -0.108340
2.302500 3.726660 51.344200 162 112 87 0.309939 -0.943039 -0.120890
2.231990 3.701710 51.381302 163 112 85 0.316545 -0.941314 -0.117169
2.061940 3.580050 51.504700 169 113 83 0.738627 -0.671872 -0.054935
1.962290 3.578480 51.543499 168 112 82 0.643984 -0.763042 0.055234
1.901950 3.490320 51.612900 168 111 81 0.706887 -0.697429 0.117917
1.844770 3.519630 51.576698 169 112 82 0.676775 -0.733907 0.057931
1.731580 3.495330 51.630901 170 115 84 0.479542 -0.460947 0.746704
1.679560 3.484920 51.677601 165 111 81 0.190037 -0.788466 0.584984
1.635310 3.461800 51.739300 163 109 78 0.485881 -0.669079 0.562364
1.630410 3.454920 51.662300 161 107 77 0.169465 -0.792128 0.586357
1.581970 3.436450 51.720798 157 105 75 0.437623 -0.612563 0.658219
1.524130 3.441090 51.757000 148 97 70 0.623867 -0.432199 0.651148
1.382390 3.472540 51.787399 108 74 57 0.072969 -0.561797 0.824051
1.387170 3.455010 51.799999 115 78 59 -0.232198 -0.500063 0.834279
1.449010 3.404070 51.800301 132 86 64 0.709352 -0.397993 0.581741
1.324780 3.427520 51.785400 97 67 52 0.144848 -0.632726 0.760708
1.069930 3.447850 51.825401 36 28 26 0.435932 -0.245422 0.865870
2.950420 4.368090 50.648998 146 116 105 0.922292 -0.384865 0.035438
2.844740 4.240980 50.709202 164 122 102 0.471651 -0.808329 -0.352349
2.805410 4.107590 50.872898 166 122 98 0.566823 -0.750148 -0.340573
2.791340 4.108780 50.956001 164 119 97 0.769325 -0.604444 -0.206851
2.732650 4.011030 50.971298 162 117 95 0.772279 -0.631968 -0.064825
2.721060 3.946830 51.078201 163 117 96 0.765042 -0.643460 0.025857
2.610390 3.922490 51.153900 167 121 98 0.791162 -0.253113 0.556773
2.501400 3.850590 51.200298 166 119 96 0.250347 -0.883356 0.396244
2.517700 3.794230 51.236401 166 121 98 0.560708 -0.824562 0.075532
2.546730 3.836280 51.256802 168 123 100 0.678436 -0.714990 0.168861
2.479670 3.785240 51.302299 169 121 98 0.724895 -0.673841 0.143058
2.428930 3.767370 51.347401 171 122 97 0.760146 -0.644050 0.085892
2.444880 3.749980 51.384998 173 125 100 0.684142 -0.720272 0.114708
2.364350 3.663460 51.443199 168 119 95 0.229082 -0.973403 -0.002826
2.233150 3.719860 51.444099 167 116 89 0.458865 -0.884924 0.079698
2.119000 3.734170 51.447201 169 116 86 0.523953 -0.850420 0.047530
2.061960 3.579110 51.583099 169 116 85 0.476281 -0.878126 0.045293
2.118950 3.611820 51.618900 171 118 88 0.475980 -0.878328 0.044528
2.005790 3.552000 51.622398 169 115 84 0.466484 -0.881704 0.070643
1.753490 3.497930 51.808201 168 114 83 0.186352 -0.575659 0.796172
1.647880 3.490630 51.793598 162 109 79 0.339288 -0.596012 0.727773
1.587900 3.497680 51.828499 153 102 73 0.191492 -0.646050 0.738884
1.562100 3.530710 51.801701 149 98 71 -0.161698 -0.676402 0.718564
1.578070 3.469450 51.771702 154 103 76 0.092038 -0.739365 0.666984
1.501350 3.487120 51.847698 136 86 61 0.909391 -0.250445 0.332093
1.526630 3.480960 51.804401 145 96 70 0.197605 -0.657646 0.726949
1.454150 3.473910 51.902199 124 80 58 0.304344 -0.622595 0.720937
1.484390 3.468600 51.856899 135 89 66 0.197376 -0.629481 0.751529
1.450580 3.445790 51.845100 131 87 65 0.107589 -0.639074 0.761583
1.377790 3.502320 51.873600 102 68 51 0.461877 -0.524360 0.715343
1.325750 3.484490 51.818501 88 61 49 0.105783 -0.581174 0.806875
1.360770 3.546540 51.838600 95 63 48 0.405657 -0.527224 0.746644
1.237410 3.505970 51.907799 55 40 33 0.171659 -0.535860 0.826672
1.278640 3.457750 51.903702 73 51 42 -0.011721 -0.496016 0.868234
1.182330 3.506960 51.873402 47 35 30 0.372680 -0.568404 0.733503
1.124190 3.485990 51.857101 42 32 29 0.064021 -0.642769 0.763381
1.129680 3.532570 51.900002 44 33 29 0.118847 -0.651830 0.748995
1.063420 3.547490 51.890499 49 37 34 -0.052362 -0.826955 0.559825
1.001300 3.513380 51.941898 51 39 35 0.236977 -0.209257 0.948712
0.958784 3.504930 51.893700 42 32 30 -0.172882 -0.381250 0.908163
1.036610 3.435550 51.925598 42 32 30 0.293145 -0.063452 0.953960
0.638665 3.595990 51.932701 43 33 29 -0.214441 -0.534326 0.817625
0.628883 3.587930 51.929100 42 32 29 -0.259479 -0.545128 0.797186
0.620417 3.604410 51.917500 42 32 29 -0.321880 -0.592784 0.738241
0.542336 3.581570 51.933102 38 30 28 -0.338364 -0.590568 0.732625
2.858500 4.201270 50.888599 166 122 100 0.868111 -0.486277 -0.099589
2.853210 4.089860 51.039101 166 121 98 0.856430 -0.504532 -0.109431
2.761650 4.045580 51.052200 164 118 96 0.785736 -0.616770 -0.047056
2.722580 4.024600 51.119900 166 121 99 0.703307 -0.698215 0.133622
2.673490 3.895400 51.246601 168 122 100 0.797379 -0.229261 0.558234
2.694010 3.967010 51.218102 168 121 100 0.850301 -0.441763 0.286066
2.502110 3.809560 51.380798 177 129 105 0.729116 -0.677302 0.098243
2.549230 3.839400 51.367802 175 128 104 0.796096 -0.601614 0.065514
2.549230 3.839400 51.367802 175 128 104 0.796096 -0.601614 0.065514
2.482190 3.815810 51.359600 176 128 104 0.737691 -0.656698 0.156715
2.466440 3.754710 51.473701 179 130 104 0.764199 -0.643938 0.036661
2.411570 3.724490 51.456902 175 127 101 0.519307 -0.853319 -0.046547
2.378480 3.703310 51.525398 177 128 102 0.529810 -0.847322 -0.036691
2.281740 3.741330 51.543499 175 123 95 0.625189 -0.780345 -0.014167
2.250640 3.700500 51.540798 175 120 90 0.626182 -0.706801 -0.329133
2.172500 3.732120 51.504101 171 117 87 0.671144 -0.730460 -0.126471
2.172500 3.732120 51.504101 171 117 87 0.671144 -0.730460 -0.126471
2.039330 3.563150 51.733101 173 118 86 0.814185 -0.492830 0.306954
1.795380 3.581290 51.749901 168 113 81 0.514659 -0.559919 0.649320
1.869860 3.554590 51.803398 171 116 84 -0.269208 -0.605922 0.748589
1.815270 3.575720 51.833801 170 115 83 -0.491671 -0.507171 0.707839
1.738400 3.583350 51.786900 167 114 83 0.196746 -0.779515 0.594683
1.646220 3.534770 51.838402 160 107 77 0.392553 -0.647082 0.653595
1.642730 3.530330 51.839901 160 106 76 0.387156 -0.649184 0.654729
1.692090 3.572950 51.842602 165 111 81 0.319423 -0.773326 0.547664
1.694950 3.582990 51.836800 165 111 81 0.361549 -0.768808 0.527463
1.699180 3.529480 51.797199 166 112 82 0.308030 -0.574765 0.758132
1.588230 3.541080 51.873100 150 98 70 0.197087 -0.701454 0.684923
1.535730 3.510060 51.860699 145 96 70 0.264026 -0.664306 0.699276
1.536200 3.552740 51.905899 143 92 66 0.144195 -0.637669 0.756694
1.528440 3.524530 51.848801 144 95 70 0.072116 -0.680220 0.729452
1.459600 3.589340 51.887199 123 77 57 -0.447488 -0.686314 0.573348
1.421790 3.545090 51.885601 110 72 54 -0.254359 -0.535857 0.805083
1.487510 3.498410 51.912399 133 86 63 0.204177 -0.647210 0.734460
1.374830 3.562060 51.908199 92 60 45 -0.304826 -0.586882 0.750101
1.339270 3.549970 51.953999 84 55 43 -0.227909 -0.578231 0.783394
1.313760 3.563400 51.860699 80 52 42 0.630118 -0.431045 0.645873
1.263080 3.499220 51.944901 64 45 37 -0.089504 -0.500312 0.861207
1.261790 3.589010 51.929001 57 40 33 0.293499 -0.704083 0.646626
1.182260 3.555150 51.913601 46 33 28 0.354140 -0.532170 0.769013
1.129650 3.582590 51.939701 44 32 26 0.339819 -0.720782 0.604149
1.074510 3.599600 51.966499 57 43 37 -0.163698 -0.604692 0.779455
0.985025 3.575800 51.981800 58 43 37 0.472810 -0.311180 0.824389
1.042690 3.549710 51.964802 57 43 38 0.346125 -0.459030 0.818223
0.761339 3.625710 51.927700 48 36 32 -0.002792 -0.829034 0.559191
2.887990 4.246410 50.997700 155 111 91 0.905366 -0.424119 -0.020884
2.836750 4.120350 51.099800 165 117 94 0.748006 -0.618649 -0.240336
2.733870 4.118740 51.141399 166 121 98 0.869098 -0.494640 0.000610
2.694950 4.016120 51.291100 167 122 99 0.850363 -0.445653 0.279777
2.591350 3.932390 51.403999 177 129 104 0.830303 -0.554472 0.056184
2.641780 3.870710 51.371799 172 125 103 0.809355 -0.343878 0.476121
2.524530 3.838170 51.456100 179 131 107 0.756312 -0.653680 0.026353
2.462950 3.802930 51.535702 182 133 108 0.693930 -0.716448 0.071854
2.397520 3.778620 51.605400 185 133 105 0.695482 -0.650718 -0.304748
2.329640 3.750980 51.584000 179 128 100 0.690711 -0.720875 0.057073
2.271730 3.709610 51.645000 175 126 98 0.398177 -0.868232 0.296022
2.219210 3.777310 51.595200 177 122 93 0.617618 -0.766281 -0.177092
2.165500 3.679680 51.670700 173 122 92 0.579698 -0.765065 0.280404
2.050460 3.610770 51.773300 174 119 87 0.806434 -0.576165 0.133030
2.054540 3.627500 51.759998 174 119 87 0.758647 -0.651481 -0.005280
2.008210 3.680750 51.768600 173 119 87 0.559430 -0.818855 -0.128509
1.745310 3.610750 51.853699 167 112 81 0.454321 -0.638471 0.621247
1.648220 3.621430 51.903400 167 112 83 0.165998 -0.636608 0.753110
1.600520 3.572230 51.907001 159 105 76 0.290351 -0.593482 0.750651
1.591930 3.613450 51.951000 164 111 83 -0.025195 -0.647118 0.761974
1.539770 3.584930 51.934101 149 99 73 -0.113651 -0.760480 0.639338
1.417650 3.601930 51.918400 105 67 49 -0.389870 -0.691601 0.608021
1.426250 3.626730 51.979599 118 74 53 -0.174833 -0.768215 0.615856
1.470620 3.605900 51.958698 132 85 62 -0.222514 -0.776628 0.589352
1.488500 3.603130 51.957901 141 92 68 -0.066324 -0.671236 0.738271
1.321170 3.628030 51.975800 73 47 35 0.066716 -0.705429 0.705633
1.379760 3.595830 51.962002 95 60 44 -0.233333 -0.675850 0.699130
1.182260 3.608330 51.950802 44 31 25 0.375367 -0.543776 0.750605
0.994258 3.657020 51.965199 61 45 38 -0.479284 -0.600682 0.639897
0.752037 3.736930 51.916500 54 41 36 -0.400764 -0.792190 0.460243
2.989760 4.513090 50.770000 71 54 47 0.959418 -0.217395 0.179601
2.976120 4.345310 50.954899 119 90 77 0.929209 -0.144653 0.340067
2.990170 4.407470 50.917900 93 72 62 0.945801 -0.276719 0.169964
2.938480 4.274390 51.062500 141 105 87 0.948363 -0.243023 0.203834
2.874130 4.202520 51.092899 158 112 89 0.872365 -0.482689 -0.077399
2.778760 4.238880 51.119400 160 113 89 0.878863 -0.467867 -0.093280
2.765960 4.148440 51.248901 160 116 91 0.839082 -0.525866 -0.139309
2.732070 4.107680 51.280701 165 120 95 0.814668 -0.553390 -0.173427
2.641050 4.005690 51.403599 169 124 99 0.813252 -0.571807 0.107974
2.606390 3.981200 51.474400 173 126 100 0.818591 -0.560631 0.124905
2.541890 3.958630 51.436001 179 131 104 0.805188 -0.592207 -0.031037
2.529390 3.872950 51.507900 179 131 106 0.829704 -0.539247 0.144238
2.486680 3.840800 51.598801 181 134 107 0.683081 -0.722851 0.104339
2.328890 3.768240 51.648998 180 130 101 0.743033 -0.598177 0.300144
2.275560 3.771270 51.676399 178 129 98 0.647672 -0.653013 0.392549
2.218660 3.753070 51.729900 177 126 95 0.747762 -0.641788 0.170176
2.101570 3.799880 51.740200 175 123 90 0.318244 -0.899974 -0.297939
1.887930 3.687560 51.871101 172 117 85 0.822803 -0.529935 0.205338
1.774510 3.671130 51.869202 169 115 84 -0.147396 -0.632713 0.760229
1.772010 3.698630 51.925701 170 116 86 -0.195585 -0.400790 0.895050
1.711290 3.623990 51.943199 168 114 84 0.255784 -0.740294 0.621723
1.659200 3.633520 51.976101 168 113 83 0.259383 -0.722322 0.641070
1.541850 3.626920 51.977699 159 105 77 0.197729 -0.486158 0.851207
1.542990 3.674350 52.018501 166 112 83 -0.070130 -0.605466 0.792775
1.543080 3.621930 51.983002 160 108 80 0.013800 -0.646771 0.762560
1.598580 3.647640 52.001499 167 113 84 -0.111057 -0.623386 0.773987
1.472860 3.615630 52.022499 151 101 75 0.045358 -0.684609 0.727498
1.436710 3.627680 51.978401 124 79 58 -0.032387 -0.683294 0.729425
1.376440 3.647410 51.999100 103 64 46 -0.180329 -0.780046 0.599175
1.367300 3.665940 52.061501 135 89 68 -0.139913 -0.778778 0.611498
1.422070 3.643260 52.040100 143 95 72 -0.090129 -0.765465 0.637134
1.322000 3.669610 52.021000 89 54 39 -0.101638 -0.733403 0.672153
1.271170 3.639570 52.006401 61 39 29 -0.020046 -0.666671 0.745082
0.825279 3.840030 51.964802 59 42 34 -0.345501 -0.260619 0.901502
0.762002 3.851440 51.991100 58 43 35 0.569528 -0.301467 0.764693
0.751290 3.776920 51.969700 58 43 36 0.563341 -0.812160 0.151799
2.995730 4.689360 50.741699 50 43 38 0.946605 -0.269127 0.177511
2.987090 4.660320 50.801601 51 38 34 0.946962 -0.259751 0.189189
2.974280 4.507200 50.957298 49 32 24 0.735109 -0.669693 -0.105479
2.950880 4.404280 51.048901 90 66 54 0.925196 -0.139661 0.352856
2.893240 4.266990 51.126499 143 102 83 0.896922 -0.402165 0.183835
2.815250 4.294080 51.215900 144 99 79 0.904597 -0.426123 -0.011167
2.751810 4.076010 51.361698 162 117 92 0.831095 -0.533958 -0.155471
2.575620 4.031880 51.483601 171 124 98 0.775104 -0.631676 0.014122
2.542910 3.914070 51.584499 172 126 99 0.833112 -0.530764 0.155604
2.467700 3.879960 51.700500 173 127 102 0.771456 -0.633800 -0.056153
2.344530 3.854450 51.747398 176 130 104 0.495316 -0.863993 -0.090427
2.287580 3.805910 51.736401 179 131 101 0.288805 -0.932814 0.215523
2.242470 3.770210 51.812698 181 133 103 0.582366 -0.801560 0.135465
2.163020 3.765250 51.849201 181 132 101 0.142020 -0.893059 0.426939
2.109290 3.776290 51.877701 184 135 103 0.728075 -0.685473 -0.005856
2.004070 3.767670 51.888000 178 128 96 -0.227040 -0.844070 0.485796
1.968950 3.782710 51.925201 176 126 94 -0.066483 -0.784273 0.616844
1.836970 3.772370 51.922501 171 116 84 0.843452 -0.413902 0.342452
1.754940 3.805190 51.905399 170 113 81 0.794376 -0.521951 0.310701
1.727380 3.767870 51.992901 168 111 81 0.688092 -0.450357 0.568953
1.649050 3.658300 52.033298 167 109 77 0.656132 -0.571960 0.492292
1.472750 3.700450 52.112801 161 103 73 0.582973 -0.810088 -0.062450
1.461890 3.689910 52.063099 160 105 76 0.468070 -0.740481 0.482285
1.472150 3.653350 52.070702 162 109 81 -0.040581 -0.788405 0.613816
1.410000 3.684370 52.107498 161 109 81 -0.212426 -0.853514 0.475804
1.420310 3.679450 52.090099 160 108 81 -0.120411 -0.795211 0.594256
1.249000 3.727330 52.120998 131 86 67 -0.210409 -0.709272 0.672801
1.141880 3.746190 52.101299 67 36 23 -0.347728 -0.782671 0.516247
0.737904 3.902280 52.036900 58 43 34 0.757175 -0.262942 0.597953
0.802208 3.854660 52.037102 58 42 33 0.367854 -0.366976 0.854407
0.701097 3.841220 52.033298 57 42 34 0.882121 -0.153520 0.445303
3.002300 4.860320 50.697399 77 67 69 0.928455 -0.171162 0.329658
2.996220 4.680040 50.890400 72 56 51 0.917694 -0.122633 0.377888
3.014010 4.640960 50.909199 72 57 50 0.962023 -0.232189 0.143526
2.916860 4.462190 51.134201 71 48 37 0.882982 -0.125276 0.452381
2.924190 4.369130 51.133499 112 82 69 0.922456 -0.123398 0.365853
2.797420 4.193170 51.409199 139 97 75 0.922967 -0.377985 0.072513
2.785480 4.148720 51.444599 143 100 78 0.823662 -0.543349 -0.162337
2.632790 4.047150 51.529598 163 118 94 0.785385 -0.618559 0.023553
2.652910 4.021340 51.607399 158 115 94 0.824345 -0.419084 0.380557
2.575130 3.906700 51.771900 140 105 86 0.630678 -0.208165 0.747604
2.530890 3.951370 51.706600 156 116 93 0.800573 -0.599153 -0.009931
2.575710 3.961910 51.634300 161 118 94 0.714699 -0.254807 0.651367
2.575710 3.961910 51.634300 161 118 94 0.714699 -0.254807 0.651367
2.575710 3.961910 51.634300 161 118 94 0.714699 -0.254807 0.651367
2.491590 3.834190 51.855701 150 114 92 0.655874 -0.014802 0.754725
2.467250 3.880070 51.775398 160 119 98 0.379825 -0.920129 -0.095375
2.420770 3.791180 51.860199 163 123 101 0.397323 -0.916863 -0.038682
2.329380 3.828770 51.845402 176 134 110 0.503128 -0.846044 -0.176269
2.256400 3.793080 51.956600 165 130 110 0.342533 -0.927770 0.148035
2.238590 3.832500 51.910900 174 135 113 0.404363 -0.906925 0.118225
2.241770 3.776200 51.877201 182 135 108 0.730624 -0.672268 -0.119352
2.298880 3.779350 51.928299 169 131 110 0.415705 -0.899972 0.131302
2.208020 3.795030 51.917801 179 137 112 0.627714 -0.729393 0.271959
2.187440 3.809200 51.899700 180 137 111 0.576210 -0.817292 -0.004004
2.121630 3.811600 51.946098 181 137 112 0.666883 -0.728465 0.156861
2.052070 3.799740 51.902500 182 134 103 0.010480 -0.839691 0.542963
2.063720 3.803960 51.988400 178 133 107 0.713493 -0.625241 0.316231
2.009900 3.832110 51.926300 179 130 100 -0.028515 -0.942325 0.333483
1.952510 3.849120 51.952499 176 127 96 -0.315530 -0.881508 0.351262
1.932280 3.783490 52.044701 175 125 95 0.497015 -0.339431 0.798601
1.845270 3.851640 51.957901 172 120 88 0.442549 -0.698740 0.562061
1.754230 3.848280 51.950802 169 113 81 0.763668 -0.625466 0.160010
1.691660 3.779330 52.076801 167 110 79 0.468036 -0.293575 0.833520
1.685010 3.742140 52.054600 167 108 77 0.653244 0.008435 0.757100
1.561270 3.867710 52.034401 164 106 74 0.669100 -0.364506 0.647642
1.194890 3.764790 52.127998 121 77 58 -0.256102 -0.595092 0.761760
1.249980 3.781730 52.159698 156 104 79 -0.255425 -0.595056 0.762014
1.255360 3.784430 52.157600 155 102 76 -0.077521 -0.486971 0.869971
1.138230 3.795570 52.139599 119 75 57 -0.311530 -0.618291 0.721571
3.035460 5.055590 50.543900 38 38 42 0.216927 0.152639 0.964181
2.966820 4.964740 50.646599 91 78 80 0.949698 -0.247754 0.191552
3.023260 4.773870 50.893002 103 83 79 0.947689 -0.305488 0.092537
2.976920 4.654970 51.028500 86 65 58 0.836652 -0.012814 0.547585
2.989040 4.640610 51.027199 87 66 60 0.861269 -0.038402 0.506696
2.996990 4.574670 51.019402 59 41 34 0.924665 -0.075823 0.373155
2.927650 4.587010 51.121101 55 33 25 0.829499 -0.013468 0.558347
2.849150 4.367430 51.298801 111 77 63 0.855130 -0.300437 0.422481
2.839770 4.420770 51.267700 117 86 73 0.675314 -0.658934 0.331296
2.879540 4.405220 51.227699 107 77 64 0.842875 -0.390601 0.370126
2.826490 4.317400 51.396400 112 77 60 0.942343 -0.307710 0.131546
2.796500 4.158580 51.528400 118 78 60 0.795436 0.073982 0.601505
2.725470 4.117940 51.581501 126 88 71 0.759064 -0.077822 0.646348
2.712910 4.048650 51.654598 124 87 71 0.884736 -0.423408 0.194852
2.658190 4.049410 51.698799 109 80 66 0.783421 -0.378422 0.492999
2.611540 4.022760 51.763302 88 63 51 0.763057 -0.390128 0.515311
2.537640 3.888990 51.835201 125 96 80 0.596450 -0.657031 0.461040
2.497350 3.867140 51.924301 82 60 48 0.516906 -0.317083 0.795152
2.460140 3.890900 51.841099 136 105 88 0.451399 -0.885955 -0.106408
2.456910 3.804070 51.927799 128 99 83 0.580048 -0.614684 0.534516
2.399540 3.845690 51.899101 140 108 91 0.305137 -0.950929 0.051234
2.319230 3.842250 51.907398 155 120 101 0.426323 -0.890237 -0.160397
2.327710 3.876750 51.959999 97 71 60 0.391076 0.007941 0.920324
2.277300 3.854950 51.948700 138 107 91 0.502927 -0.692994 0.516549
2.297460 3.839710 51.962898 126 96 82 0.445745 -0.229868 0.865143
2.175980 3.863720 52.022800 119 90 74 0.448103 -0.257708 0.856031
2.184180 3.818470 51.969200 167 130 109 0.404409 -0.501322 0.764938
2.201920 3.801410 51.988800 162 127 107 0.087273 -0.763059 0.640410
2.226910 3.852420 51.989201 129 100 83 0.343616 -0.750260 0.564834
2.243450 3.837980 52.006199 119 91 76 0.316404 -0.645387 0.695243
2.254980 3.825000 52.009201 115 87 73 0.436560 -0.672610 0.597504
2.120480 3.811630 52.021999 168 132 110 0.046977 -0.964751 0.258937
2.169100 3.865490 52.012501 130 100 83 0.431174 -0.487659 0.759130
2.177080 3.800250 51.993401 166 131 110 0.089685 -0.970474 0.223914
2.002210 3.844520 52.055099 174 134 111 0.266166 -0.675146 0.687992
1.955480 3.840320 52.092400 173 130 106 0.533743 -0.836141 0.126438
1.849470 3.874910 52.067501 168 118 89 0.723661 -0.682699 0.101173
1.868010 3.874440 52.079102 170 122 95 -0.272585 -0.486537 0.830048
1.932360 3.828570 52.088200 176 131 106 -0.117105 -0.738488 0.664019
1.902480 3.835950 52.057400 174 125 97 0.675582 -0.720841 0.154845
1.692370 3.866290 52.123001 164 110 80 0.412977 -0.387629 0.824132
1.469680 3.920710 52.064201 161 103 72 0.462540 -0.284726 0.839635
1.136020 3.841020 52.185902 147 96 72 -0.489238 -0.590327 0.641998
1.189790 3.849000 52.229801 155 99 70 0.215921 -0.561742 0.798639
2.960570 4.874510 50.938499 77 58 52 0.838014 0.003813 0.545636
2.963750 4.809500 50.998402 73 55 50 0.802756 0.033682 0.595356
2.911380 4.730670 51.096001 69 53 45 0.816120 0.003338 0.577873
2.867100 4.603030 51.211800 53 30 21 0.624558 0.118245 0.771975
2.893060 4.510420 51.240299 59 35 27 0.715744 -0.148291 0.682437
2.812320 4.455600 51.344002 88 59 48 0.856941 -0.166905 0.487641
2.781410 4.310730 51.492100 89 56 40 0.752497 0.100426 0.650894
2.717530 4.247200 51.563702 83 54 41 0.689534 0.005382 0.724233
2.664690 4.251400 51.604698 68 44 33 0.640045 -0.028302 0.767816
2.666630 4.144100 51.667000 76 51 39 0.709201 -0.190903 0.678667
2.640570 4.113410 51.746799 51 32 22 0.804524 -0.064513 0.590407
2.594130 4.086030 51.811901 39 23 15 0.846428 -0.280800 0.452449
2.517340 3.985160 51.880299 51 35 25 0.663339 -0.453061 0.595581
2.568240 3.995130 51.829498 67 48 37 0.692958 -0.468616 0.547912
2.463150 3.967960 51.927601 48 33 24 0.523900 -0.297256 0.798228
2.425910 3.895180 51.938702 77 56 47 0.480167 -0.349805 0.804411
2.349290 3.896580 51.961201 83 60 50 0.539948 -0.173735 0.823573
2.277300 3.891990 51.998299 84 61 50 0.418371 -0.221063 0.880963
2.312730 3.923620 52.019798 66 48 39 0.412416 -0.802650 0.430889
2.302420 3.912020 51.986801 77 57 47 0.398502 -0.201645 0.894727
2.229470 3.935030 52.048599 64 43 35 0.644489 -0.597973 0.476511
2.178950 3.937710 52.045601 75 52 42 0.715919 -0.594375 0.366303
2.245250 3.893620 52.042000 75 54 43 0.431331 -0.531257 0.729191
2.168920 3.860490 52.092201 89 65 52 0.289303 -0.621447 0.728085
2.169110 3.860160 52.092701 88 64 52 0.285633 -0.619709 0.731009
2.065020 3.841340 52.113701 128 97 80 0.002958 -0.914839 0.403807
2.119410 3.826980 52.086399 124 94 78 0.069359 -0.857954 0.509022
2.115550 3.888830 52.112999 88 62 50 0.275475 -0.654124 0.704440
2.117740 3.874780 52.126900 85 59 47 0.249170 -0.637929 0.728671
2.112520 3.888740 52.113701 89 63 50 0.275052 -0.661875 0.697329
2.115690 3.889310 52.112900 88 62 50 0.277067 -0.652501 0.705320
2.009980 3.858370 52.138401 136 103 86 0.043978 -0.921358 0.386219
1.972380 3.897400 52.096199 158 120 101 0.367144 -0.420943 0.829465
1.902520 3.852440 52.142799 167 125 102 0.187614 -0.416956 0.889353
1.956010 3.874740 52.164799 136 100 82 -0.039938 -0.903010 0.427759
1.902280 3.865870 52.111500 171 128 104 -0.063675 -0.763599 0.642543
1.922640 3.880180 52.109001 168 127 105 -0.146089 -0.970381 0.192403
1.801730 3.876290 52.118000 169 119 90 0.666842 -0.733945 0.129025
1.848450 3.847790 52.162201 169 124 100 -0.033713 -0.847926 0.529041
1.745670 3.885720 52.149200 170 121 94 -0.011931 -0.957203 0.289171
0.061348 4.332560 52.049198 85 32 30 0.539403 -0.451389 0.710840
-0.093956 4.350950 52.107101 135 77 63 -0.046963 -0.711519 0.701096
3.285800 5.323960 50.523399 61 58 57 -0.236076 -0.931092 0.278092
2.832290 4.589750 51.283699 61 36 27 0.908261 -0.417653 -0.025064
2.828340 4.360070 51.494499 80 51 39 0.904917 -0.423940 -0.037414
2.779110 4.297170 51.609798 69 40 28 0.708513 0.090064 0.699926
2.727160 4.301590 51.647099 56 29 17 0.529863 0.038401 0.847214
2.649200 4.302290 51.626099 55 30 20 0.797841 0.075510 0.598121
2.612640 4.327700 51.658401 45 24 15 0.809450 -0.576628 -0.110867
2.581730 4.118490 51.819000 37 20 12 0.795095 -0.150583 0.587494
