ply
format ascii 1.0
element vertex 718
property float x
property float y
property float z
property uchar red
property uchar green
property uchar blue
property float nx
property float ny
property float nz
end_header
-2.448660 1.382270 16.983400 49 49 64 0.226850 0.799257 -0.556532
-2.349320 1.402190 17.029100 54 53 65 0.056736 0.777374 -0.626475
-2.140840 2.030660 17.437401 34 34 47 -0.505911 0.713337 -0.484979
0.516031 0.663844 18.148001 191 50 94 0.379758 0.911765 0.156427
-2.400350 1.384520 17.027100 51 49 61 0.002954 0.793996 -0.607915
-2.374770 1.397120 17.043600 51 51 63 0.007410 0.795892 -0.605393
-1.736810 1.170040 17.253099 49 54 68 -0.283757 0.765211 -0.577870
1.240180 2.800300 19.581900 212 67 126 -0.750928 0.130774 -0.647306
-1.031490 1.278500 17.716999 27 22 30 -0.454992 0.666898 0.590110
-2.546120 1.227300 16.951401 75 66 77 -0.734526 0.643698 0.214767
-0.946740 0.929121 17.652901 121 80 74 0.303547 0.821710 -0.482340
-0.914638 0.927661 17.674299 135 90 82 0.308745 0.894858 -0.322343
-1.751100 1.140460 17.377300 24 27 40 0.043615 0.995951 -0.078608
-1.272420 1.025660 17.573601 68 48 51 0.067601 0.951708 -0.299471
-0.881867 0.953193 17.726801 117 71 61 0.356951 0.885638 -0.297038
-3.149920 0.546909 16.417299 72 80 95 -0.824974 0.515409 -0.231888
-2.152460 0.833319 17.077400 54 52 62 -0.424756 0.843934 0.327655
-0.443927 1.624690 18.309601 159 95 120 -0.325313 0.911922 0.250141
-0.418109 1.631930 18.329201 195 122 145 -0.343670 0.894035 0.287388
-0.414775 1.630400 18.331100 195 122 145 -0.225164 0.937702 0.264605
-2.175790 0.844104 17.092100 57 54 65 -0.340349 0.865900 0.366579
-2.176640 0.832092 17.097500 57 54 66 -0.322740 0.868566 0.376075
-1.804930 1.108090 17.389601 38 42 56 -0.583635 0.769397 -0.259613
-0.496565 1.610680 18.319599 150 108 125 -0.303588 0.920679 0.245325
-0.420084 1.618880 18.363100 181 119 141 -0.154886 0.886231 0.436583
-0.417634 1.618610 18.365000 179 118 140 -0.169812 0.880118 0.443346
-3.125870 1.240450 16.832199 62 66 83 0.112539 0.936526 0.332045
-0.526230 1.602660 18.332600 63 52 62 0.086141 0.767217 0.635577
-2.629600 1.171270 17.129900 51 51 64 -0.930166 0.364593 -0.043168
-2.367390 1.437260 17.388300 27 31 44 0.026663 0.763145 -0.645677
-2.282410 1.495030 17.450399 28 32 44 0.281272 0.880461 -0.381675
-2.251230 1.500540 17.488800 28 31 43 -0.068033 0.843011 -0.533577
-2.340320 1.506760 17.490801 38 41 54 -0.311249 0.948025 -0.066130
-0.961017 1.888470 18.369801 38 35 46 0.492263 0.852499 -0.175849
-2.442560 1.479290 17.456699 35 39 51 -0.573488 0.721622 -0.387779
-2.421920 1.500220 17.478600 41 45 57 -0.053365 0.951878 0.301796
-2.394570 1.499480 17.492001 39 43 55 -0.078024 0.954626 0.287405
-2.367510 1.497760 17.507000 39 43 55 -0.078746 0.954882 0.286355
-2.340010 1.503660 17.516199 32 36 48 -0.074690 0.970954 -0.227308
-1.906950 1.129260 17.607599 34 37 51 0.356051 0.894746 -0.269552
-1.652820 1.955610 18.086901 24 25 36 0.127031 0.814019 -0.566777
-1.607760 1.896910 18.076099 30 31 41 -0.024971 0.817374 -0.575566
-1.580210 1.904340 18.088800 36 36 46 -0.015685 0.820619 -0.571261
-1.029280 1.909190 18.384001 24 18 28 0.140925 0.688655 0.711263
-1.006170 1.983750 18.428699 21 17 28 0.370629 0.912280 -0.174297
-0.904682 1.887920 18.438000 25 26 40 0.411415 0.880366 -0.235995
-0.941864 1.910230 18.456400 20 20 32 0.354442 0.933505 -0.054212
-2.137640 0.987189 17.507999 33 36 49 -0.604793 0.730284 -0.317664
-2.101590 1.046180 17.546301 32 36 48 -0.569695 0.727464 0.382419
-0.963601 1.875500 18.480499 15 19 33 -0.123965 0.991788 0.031457
-2.987590 0.975580 17.065701 88 79 93 -0.068072 0.729357 -0.680739
-2.132070 1.016280 17.542700 33 36 48 -0.001399 0.995617 0.093512
-2.221400 1.438390 17.656500 23 26 38 -0.686787 0.710665 0.152577
-1.484160 2.201560 18.353800 27 24 32 0.528420 0.803075 0.275395
-0.963852 1.878900 18.507601 21 24 39 0.011986 0.999786 -0.016874
-0.933526 1.879950 18.523701 19 21 35 0.050343 0.998723 -0.004149
-3.052870 1.140720 17.145700 72 65 81 -0.276633 0.753900 -0.595911
-0.491229 0.794718 18.400000 98 61 60 -0.104099 0.789464 -0.604905
-3.314230 0.723626 16.919701 47 56 73 -0.803981 0.586871 -0.095896
-1.886510 1.642050 18.028700 12 16 27 -0.914237 0.380902 -0.138149
-1.938280 1.631520 18.047001 22 26 37 -0.867158 0.324364 -0.377921
-1.908850 1.651080 18.049601 11 15 25 -0.698014 0.637570 -0.326007
-1.543960 2.045920 18.410299 15 16 25 -0.844331 0.367354 0.390072
-1.522160 2.058830 18.428699 16 17 26 -0.414207 0.767957 0.488543
-1.497590 2.062280 18.445801 18 20 29 -0.342040 0.892465 0.294134
-1.471950 2.062660 18.463301 18 20 30 -0.348533 0.897559 0.270024
-3.071470 1.282240 17.359301 59 58 70 -0.529102 0.639034 -0.558288
-1.966690 1.548930 18.035999 32 36 47 -0.418255 0.531995 -0.736237
-1.966690 1.548930 18.035999 33 37 48 -0.418255 0.531995 -0.736237
-1.966690 1.548930 18.035999 33 37 48 -0.418255 0.531995 -0.736237
-1.438930 2.030150 18.502300 20 20 29 -0.581352 0.695608 0.422088
0.535159 2.374180 19.687300 35 30 44 -0.238490 0.952266 -0.190559
-2.721140 1.328230 17.591700 37 41 54 -0.704978 0.700175 -0.112969
-1.667960 1.880110 18.366899 20 24 36 0.034766 0.863383 -0.503350
-1.639100 1.882960 18.381599 17 22 33 -0.447442 0.681289 -0.579346
-3.069050 1.284660 17.425200 58 57 70 -0.480703 0.768210 -0.422822
-2.713030 1.342430 17.628201 34 40 54 -0.571187 0.755719 -0.320365
-2.695640 1.428120 17.677099 30 35 47 0.416189 0.784135 -0.460347
-1.745190 1.823910 18.334200 20 24 35 0.033790 0.959540 -0.279538
-1.696460 1.892320 18.380100 29 32 42 0.359348 0.799318 -0.481623
-0.434941 2.195570 19.168699 20 23 36 -0.789519 0.183917 -0.585520
-2.738900 1.367610 17.673000 35 39 52 -0.586274 0.572576 -0.573096
-2.695860 1.435230 17.712900 34 39 51 0.032856 0.938248 -0.344400
-3.668390 0.594428 16.937300 143 146 150 -0.181371 0.903355 -0.388656
-2.713730 1.400680 17.718201 38 42 54 -0.265004 0.910321 0.317943
-2.520020 1.352490 17.810200 24 27 38 -0.611938 0.723348 -0.319843
-2.436490 1.661970 17.972601 21 25 35 0.047118 0.752104 -0.657358
-0.203964 1.189110 18.989700 23 21 34 -0.339800 0.722298 -0.602346
-0.204504 1.168020 19.004200 24 25 40 0.240322 0.888290 -0.391390
-3.662930 0.561714 16.938299 142 149 158 -0.523228 0.646868 -0.554792
-1.741480 1.898950 18.458900 26 31 41 -0.023860 0.916492 -0.399341
-1.712810 1.896370 18.480200 25 30 40 0.390018 0.865150 -0.315279
-1.680820 1.884360 18.499599 25 29 40 0.307428 0.946919 -0.093984
0.168674 1.745890 19.444201 21 24 38 -0.870050 0.363404 -0.333091
0.337460 2.408500 19.755301 51 42 60 -0.702962 0.592581 -0.393309
-2.632000 1.664750 17.922199 32 37 48 0.146820 0.941803 -0.302410
-2.101580 1.644340 18.227400 20 25 37 -0.230110 0.961944 -0.147354
-1.738530 1.893960 18.497101 19 23 34 0.043200 0.949914 -0.309512
-1.712430 1.904330 18.511600 19 23 34 0.074405 0.954747 -0.287963
0.221939 2.061530 19.598801 25 24 40 -0.930428 0.002975 -0.366463
0.334375 2.425440 19.804100 63 41 62 0.222433 0.965326 0.136638
-3.685640 1.024140 17.173700 61 70 84 -0.633175 0.708598 -0.311412
-2.937940 1.653780 17.796801 33 39 51 -0.002118 0.813233 -0.581935
-2.597640 1.675920 17.988400 18 23 35 0.344247 0.863032 -0.369689
-3.714000 1.014720 17.212299 52 63 81 -0.724639 0.679747 0.113321
-3.712190 1.020930 17.205099 63 73 88 0.117236 0.820007 -0.560219
-3.684560 1.045100 17.212601 45 56 73 -0.299384 0.910600 -0.284914
-3.076040 1.344820 17.651100 31 37 54 0.457565 0.865128 -0.205396
-2.624670 1.683400 18.000601 19 24 36 0.563239 0.774541 -0.287833
-1.617750 1.837540 18.597700 19 22 33 -0.291625 0.950762 0.104913
-1.611070 1.803410 18.587200 17 21 30 -0.529216 0.749580 0.397569
-1.616410 1.803330 18.605700 15 18 28 -0.609889 0.655237 0.445758
-3.746200 1.017670 17.234501 73 79 94 -0.327455 0.735564 -0.593059
-3.746180 1.017380 17.234501 70 76 91 -0.325760 0.740283 -0.588100
-3.712430 1.017360 17.238400 61 70 85 -0.200556 0.977694 0.062378
-1.652580 1.600500 18.581400 14 18 28 0.327022 0.942746 0.065466
-1.459560 1.381850 18.626301 27 30 43 -0.511020 0.417760 -0.751223
-1.428940 1.433360 18.663601 28 31 45 -0.529769 0.846812 -0.047483
-3.743360 1.199710 17.364201 75 81 94 -0.363722 0.705579 -0.608165
-1.445760 1.437790 18.682199 25 28 41 -0.560532 0.828055 0.011348
-1.407030 1.460840 18.720200 25 30 43 -0.679720 0.733128 -0.022450
-1.980830 1.696070 18.491400 23 27 38 -0.360086 0.785040 -0.504035
-1.491030 1.387300 18.670500 17 22 35 -0.186329 0.979607 0.075182
-1.741760 1.659280 18.644199 28 31 43 -0.136014 0.625017 0.768670
-1.448100 1.440070 18.740299 21 25 38 -0.538295 0.836124 -0.105524
-1.438790 1.463660 18.760000 19 23 36 -0.444220 0.881658 -0.159209
-1.074870 1.831750 19.123600 25 27 36 0.352239 0.916736 -0.188475
0.115666 2.322330 19.955099 18 21 34 -0.492925 0.711073 -0.501399
-3.826290 0.991232 17.419901 76 85 104 -0.635337 0.427679 0.642992
-2.214590 1.761790 18.561899 24 28 39 0.445190 0.723049 0.528210
-2.672290 1.672150 18.344200 22 26 37 0.214536 0.815916 -0.536894
-2.700910 1.672450 18.357901 22 27 38 -0.331795 0.818782 -0.468518
-2.712990 1.683150 18.347099 24 28 39 -0.382268 0.816418 0.432820
-2.644500 1.668410 18.392099 18 23 33 0.152623 0.974094 -0.166877
-3.193020 1.650820 18.113199 36 41 55 -0.820936 0.570585 -0.022277
-2.672650 1.676170 18.407499 14 19 30 -0.477755 0.606191 -0.635832
-2.631650 1.661550 18.427700 15 19 29 -0.798856 0.580579 -0.157342
-2.249000 1.236150 18.490999 19 23 32 0.090905 0.980000 -0.177021
-2.692660 1.671880 18.411699 13 18 29 -0.790502 0.606113 0.087938
-2.662860 1.666640 18.425400 13 17 27 -0.395371 0.883172 -0.252367
-1.174740 1.703320 19.308701 17 23 34 -0.776740 0.544175 -0.317093
-2.955410 1.631010 18.347200 20 27 39 -0.339978 0.645911 -0.683531
-2.860090 1.593560 18.379101 17 23 34 0.697681 0.701570 0.145052
-0.337726 2.146250 19.930300 29 34 47 -0.410606 0.542396 -0.732946
-0.308112 2.169370 19.930700 29 34 47 -0.437047 0.843992 -0.310914
0.409145 2.560040 20.518801 21 24 38 -0.911017 -0.125840 -0.392698
-3.108010 1.584040 18.326401 24 30 43 -0.239545 0.960462 -0.141887
-2.340230 1.616940 18.816099 12 16 25 0.278915 0.696130 0.661521
-2.329510 1.594380 18.792500 12 16 25 0.254885 0.725169 0.639659
-1.275850 1.780740 19.425100 24 27 40 -0.119299 0.679819 -0.723611
-1.093520 1.967140 19.580500 32 37 50 -0.204067 0.803546 -0.559169
0.605201 2.377100 20.625299 20 24 36 0.275909 0.961055 -0.015756
0.579431 2.493170 20.642700 27 31 45 0.083082 0.994379 -0.065629
0.647315 2.512270 20.689699 25 29 43 -0.086415 0.977908 -0.190336
0.691134 2.491890 20.699499 19 22 35 -0.053036 0.998001 0.034380
0.693230 2.485680 20.704000 19 23 35 -0.164495 0.984006 0.068361
0.801670 2.532960 20.802099 17 18 29 -0.687539 0.695452 0.208892
-1.270300 1.789790 19.487101 16 20 32 0.235511 0.809676 -0.537549
-1.252630 1.800280 19.475700 19 22 35 0.174419 0.787374 -0.591287
-1.209310 1.840450 19.538900 13 18 30 -0.127152 0.558363 -0.819795
-0.479884 2.104530 19.987700 28 33 46 -0.677963 0.463344 -0.570683
-0.454775 2.169440 20.016399 22 26 38 -0.880652 0.438751 -0.178743
0.610731 2.552560 20.721600 22 24 36 -0.553727 0.821221 -0.137782
0.658602 2.523500 20.744499 18 20 32 -0.085138 0.974603 -0.207124
-0.501510 2.224880 20.051100 14 16 28 -0.616648 0.134810 -0.775611
0.646122 2.562030 20.778400 25 27 40 -0.305462 0.947956 0.089840
-0.543419 2.039530 20.014999 11 15 27 -0.384854 0.771104 -0.507235
-0.531771 2.051370 20.037399 11 15 26 -0.469586 0.686667 -0.554958
0.417719 2.432570 20.659700 33 39 55 -0.876208 0.338163 -0.343373
0.412826 2.472270 20.661100 32 38 53 -0.887012 0.413424 -0.205645
0.433671 2.489200 20.684799 30 35 51 -0.888442 0.408678 -0.208932
0.470685 2.535570 20.716499 26 30 44 -0.842134 0.402770 -0.358589
0.489755 2.487720 20.715700 31 37 51 -0.565765 0.764719 -0.308407
-3.476730 1.424000 18.278099 31 40 54 -0.874225 0.483722 -0.041767
-2.755700 1.675830 18.725599 15 19 30 -0.209024 0.668136 0.714076
-2.728710 1.655340 18.733700 16 21 31 -0.379440 0.656268 0.652180
0.397335 2.440490 20.661301 34 40 56 -0.911799 0.353983 -0.208132
0.456044 2.501540 20.715599 28 33 47 -0.912583 0.378574 -0.154514
0.544832 2.517660 20.776400 34 39 53 -0.507150 0.775098 -0.376859
-3.745710 0.763020 17.985901 28 38 55 -0.796718 0.504514 -0.332725
-3.583920 1.333950 18.224800 33 43 58 -0.749334 0.505657 -0.427562
-3.502790 1.411300 18.274700 33 41 56 -0.678834 0.674302 -0.290690
-2.766510 1.702440 18.746799 24 28 39 -0.266176 0.662951 0.699747
0.136090 2.041340 20.451200 34 38 53 -0.980145 0.065045 -0.187307
-3.579480 1.348650 18.249201 34 44 59 -0.706854 0.582086 -0.401913
0.262830 2.185030 20.617001 31 38 55 -0.512377 0.765436 -0.389330
0.379439 2.364990 20.711599 23 27 42 -0.976927 0.196838 -0.082876
0.234437 2.169720 20.611200 27 32 49 -0.536417 0.744121 -0.398172
0.208154 2.190550 20.608500 25 31 46 -0.613733 0.699946 -0.365250
0.265023 2.185100 20.629200 30 36 53 -0.421778 0.710185 -0.563684
0.241012 2.189760 20.636499 26 31 47 0.024563 0.787014 -0.616446
-3.092640 1.445780 18.635000 29 37 49 0.483473 0.665771 -0.568334
-0.123326 1.570320 20.313101 8 5 15 0.068638 0.989106 0.130224
-2.908170 1.470150 18.828400 18 23 33 0.029976 0.787979 0.614972
-2.875860 1.464050 18.832100 16 20 31 0.137481 0.825015 0.548132
-2.821200 1.443730 18.860901 14 18 29 -0.678932 0.513608 0.524651
-0.207307 1.521510 20.358900 4 4 12 -0.268718 0.659021 -0.702483
-2.947090 1.503740 18.836100 22 26 37 0.476599 0.710936 0.517131
-1.845610 1.413950 19.468700 6 9 16 -0.313988 0.841980 0.438727
0.062914 1.956370 20.644600 8 9 21 -0.703735 0.143392 -0.695842
-3.986120 0.424017 18.090799 117 109 101 -0.332524 0.768796 -0.546242
-1.901140 1.397300 19.451300 9 12 19 -0.300234 0.846377 0.439893
-1.872000 1.393930 19.466200 7 11 18 -0.741954 0.634980 0.215184
-0.965636 1.601140 20.035200 61 66 74 0.296076 0.856552 -0.422679
-0.610332 1.469250 20.208099 13 15 26 -0.903723 0.376901 -0.203050
-3.295460 1.292500 18.664900 26 34 47 -0.647719 0.539417 0.538042
-1.870010 1.395350 19.521400 10 13 19 -0.013973 0.975886 0.217831
-1.836270 1.372350 19.522499 8 11 18 0.227072 0.925848 0.302064
-1.842630 1.408330 19.527500 9 13 19 0.032874 0.899373 0.435945
-1.802590 1.360740 19.537701 7 10 16 0.027746 0.958188 0.284790
-1.800680 1.364760 19.538900 8 11 18 0.220623 0.915959 0.335179
-1.043570 1.639900 20.037201 15 19 31 0.405630 0.704908 -0.581867
-3.359250 0.457921 18.512501 32 42 58 0.393677 0.868985 0.299807
-2.656670 1.087800 19.032301 12 18 29 0.723864 0.689937 -0.002565
-2.617140 1.066500 19.068300 9 14 25 0.294847 0.704946 0.645071
-2.133560 1.015530 19.326500 15 19 29 -0.960250 0.234547 -0.151357
-1.966890 1.393200 19.474899 12 15 22 -0.016766 0.892574 0.450590
-1.923620 1.354360 19.513800 14 17 24 0.371707 0.870304 -0.323119
-1.801950 1.358560 19.572901 10 13 20 0.561484 0.805431 0.189778
-1.003130 1.636500 20.087000 11 15 26 0.200337 0.891005 -0.407399
-3.815930 1.269920 18.448500 73 76 81 0.656610 0.707304 0.261886
-3.217040 1.305160 18.802799 15 25 36 -0.836027 0.499472 0.227127
-2.162910 1.325280 19.414499 8 12 20 -0.453443 0.652743 0.606890
-2.136300 1.335580 19.429501 10 15 22 -0.201313 0.979334 -0.019429
-2.102370 1.335710 19.449699 12 16 24 -0.073536 0.926049 0.370170
-2.072640 1.337050 19.465700 14 18 25 0.143921 0.989329 -0.022715
-2.044580 1.343340 19.485399 13 17 25 -0.241273 0.929853 0.277779
-2.014190 1.345480 19.473801 17 20 28 -0.182062 0.671901 0.717915
-1.908140 1.364370 19.546600 15 18 25 0.423899 0.770061 0.476776
-1.867500 1.336860 19.560101 13 16 23 0.473633 0.771126 0.425484
0.700734 1.500730 21.075300 14 17 32 -0.686852 0.721240 -0.089706
-3.253940 1.216430 18.775000 17 25 38 -0.332374 0.768560 0.546666
-3.249760 1.262190 18.793699 19 27 39 -0.335000 0.916816 0.217311
-3.192900 1.275440 18.849501 15 23 34 -0.843031 0.476777 0.248962
-2.654690 1.057870 19.093300 13 18 30 0.299245 0.707434 0.640305
-2.234540 1.248420 19.370399 8 11 21 -0.931245 0.321145 0.172187
-2.224290 1.252250 19.389799 7 11 20 -0.489545 0.528226 0.693774
-2.162750 1.329650 19.448200 6 10 18 -0.216736 0.949051 -0.228754
-2.013110 1.362660 19.530399 10 14 21 0.328334 0.898700 -0.290749
-2.562870 1.011580 19.180901 9 14 23 -0.338549 0.675476 -0.655070
-0.525449 1.450560 20.418699 7 9 19 -0.671999 0.740064 -0.026900
-2.650910 1.042490 19.162800 15 20 32 -0.059210 0.961653 0.267801
-2.650900 1.042560 19.162901 15 20 32 -0.063234 0.961398 0.267799
-2.616070 1.074680 19.217300 11 16 25 -0.069711 0.962534 0.262048
-2.617950 1.062710 19.205200 10 15 24 -0.064383 0.962281 0.264329
-2.739250 1.073020 19.162399 30 37 50 0.478474 0.759307 -0.441039
-2.647030 1.056610 19.220600 14 19 28 -0.069683 0.962516 0.262119
-2.648980 1.044880 19.208099 13 18 28 -0.066248 0.961987 0.264939
-2.648960 1.045150 19.208000 13 18 27 -0.068243 0.962092 0.264049
-2.555890 1.027710 19.282301 12 17 26 0.253182 0.897028 -0.362270
0.857792 2.038430 21.406200 13 12 21 -0.449012 0.711116 0.541019
-3.053500 0.501552 18.931499 10 18 31 -0.428442 0.477753 -0.766935
-2.677920 1.040410 19.222000 15 20 29 -0.064557 0.962344 0.264058
0.198162 2.099290 21.063499 17 21 32 -0.868728 0.483225 -0.108654
-0.229528 1.263050 20.728901 9 11 17 -0.804820 0.589098 -0.072306
0.163338 2.040750 21.064400 14 18 29 -0.361584 0.847582 -0.388410
0.207487 2.112350 21.098400 11 15 25 -0.014778 0.964968 -0.261952
0.144840 2.011720 21.092501 14 18 30 -0.748844 0.597899 -0.285917
0.168285 2.040580 21.087799 15 19 31 -0.649815 0.696768 -0.303736
0.346397 2.146720 21.226000 4 6 13 -0.558751 0.772393 0.302004
-0.289877 1.116300 20.725201 6 9 16 -0.930829 0.154992 -0.330962
-0.294288 1.170290 20.723400 8 10 18 -0.864723 0.462557 -0.195691
-0.267960 1.224130 20.756001 10 12 19 -0.824159 0.545084 -0.153772
-3.425260 1.007340 18.922501 24 33 45 0.284269 0.652822 0.702149
-2.941490 0.534320 19.138201 12 16 28 0.508955 0.831351 0.223205
-0.291773 1.152150 20.780100 13 15 22 -0.888253 0.313584 -0.335665
0.409100 1.548080 21.236799 7 9 19 -0.768392 0.441043 0.463740
-0.298860 1.192430 20.808201 14 16 23 -0.894256 0.041643 -0.445615
-0.094352 1.908370 21.063601 17 22 36 -0.343321 0.933437 0.104047
-0.089173 1.888720 21.059900 18 22 36 -0.472542 0.877173 0.085273
-0.083567 1.866520 21.059601 17 22 36 -0.379292 0.919725 0.101212
-0.099079 1.925790 21.071301 18 23 37 -0.218991 0.969656 0.108672
-0.071810 1.939170 21.087500 17 22 36 -0.398714 0.910492 -0.109690
-0.127861 1.904710 21.073900 18 22 36 -0.426131 0.900019 0.091537
0.412469 2.011950 21.410900 5 5 13 -0.466318 0.693045 0.549760
-3.641700 0.990977 18.960300 80 71 67 0.131599 0.753159 0.644541
-3.609180 0.946536 18.971600 60 58 60 0.447789 0.686430 0.572974
-0.093666 1.905070 21.140100 18 22 35 -0.291518 0.950853 0.104380
-0.066517 1.919530 21.154800 16 20 32 -0.230753 0.967408 0.104281
-2.278940 0.955953 19.811199 33 38 42 0.526888 0.840597 0.125644
-2.303940 1.005480 19.819401 50 53 52 0.458826 0.857568 0.232498
-2.236260 0.903742 19.832600 21 25 32 0.641867 0.759637 0.104686
-0.323694 1.729100 21.060600 24 28 41 -0.385467 0.246631 -0.889151
0.705447 1.849130 21.673000 8 8 16 0.142249 0.810130 -0.568731
-0.083265 1.915520 21.284901 19 22 34 0.115027 0.925231 -0.361547
-0.041470 1.893550 21.327200 16 19 29 -0.162496 0.931840 -0.324453
-0.531375 0.571829 20.929300 5 10 16 -0.550239 0.666187 -0.503420
0.076189 1.905860 21.442801 10 12 22 0.188824 0.977809 0.090749
-3.469690 0.436388 19.287001 136 125 116 0.440076 0.693587 -0.570325
-3.381090 0.426438 19.339001 92 82 72 0.172731 0.948714 -0.264777
0.361948 1.889240 21.678301 13 16 25 -0.917154 0.064865 -0.393218
0.403174 1.881980 21.700701 12 14 23 -0.362020 0.917505 -0.164699
0.422736 1.918830 21.688200 12 14 23 -0.322613 0.924936 -0.201032
0.386439 1.924580 21.691299 19 21 29 -0.608901 0.752423 -0.251194
0.228133 2.170950 21.621700 65 63 62 -0.312012 0.192960 -0.930277
0.412785 1.960390 21.689699 21 22 30 -0.238900 0.956978 -0.164679
-3.414290 0.457126 19.335501 116 106 99 0.432529 0.568667 -0.699669
0.215938 2.200980 21.643499 75 73 71 -0.188424 0.441494 -0.877257
0.307448 1.727560 21.675699 9 13 22 -0.476774 0.846905 -0.235451
-0.297283 1.021310 21.332899 8 11 23 -0.911242 0.409628 -0.042924
-0.245407 1.065190 21.455900 5 8 18 -0.766823 -0.016358 -0.641651
-0.814184 0.734773 21.186100 18 22 33 0.162669 0.852422 -0.496905
-0.231102 0.749561 21.578800 8 11 18 -0.363380 0.912066 -0.189974
-0.336979 1.323710 21.544800 24 26 34 -0.031206 0.843699 -0.535909
-0.802652 0.734596 21.283800 9 13 24 0.537735 0.703857 -0.464141
-0.337259 1.347870 21.576700 45 46 49 -0.006502 0.858453 -0.512852
-0.297596 1.432910 21.607599 56 55 56 -0.244265 0.694475 -0.676786
-0.575941 0.062074 21.535500 5 8 18 -0.459133 0.546859 -0.700101
0.473299 1.958290 22.195900 14 15 26 -0.873651 -0.144246 -0.464679
-0.562208 0.092505 21.565701 5 8 19 -0.140967 0.854921 -0.499239
0.560016 1.623750 22.284401 13 14 23 -0.840815 -0.162383 -0.516393
-2.171930 0.362072 20.657400 83 76 67 0.046773 0.973813 0.222486
0.213082 0.285805 22.126400 11 12 21 -0.396980 0.625379 0.671794
-1.602850 0.134749 21.100700 86 82 73 0.475995 0.866160 0.152301
-0.275538 0.296327 21.933500 8 12 19 -0.227549 0.234403 -0.945133
-1.257660 -0.305643 21.404699 13 16 24 -0.961131 0.264648 -0.078662
-1.081690 -0.908128 21.533899 14 17 26 0.021174 0.813948 0.580552
-1.188870 -0.874305 21.555901 36 37 41 -0.083746 0.986719 0.139184
-1.188700 -0.872917 21.553499 35 36 41 -0.066687 0.988456 0.136042
-1.244080 -0.405468 21.504400 31 33 38 -0.834492 0.467842 0.291112
-0.819109 0.218896 21.829399 15 19 30 0.575633 0.760176 -0.301295
-0.867844 0.212562 21.815300 13 16 27 0.569304 0.771027 -0.285323
-0.878110 0.207606 21.814400 10 13 25 0.218820 0.783656 -0.581379
-0.844922 0.219708 21.832500 13 16 27 0.007009 0.689720 -0.724042
-1.355820 -0.542867 21.691401 70 65 62 0.614511 0.788906 0.002109
-1.233240 -0.769076 21.808500 59 58 57 0.259781 0.958823 0.114769
-0.863484 -0.942856 22.033100 35 35 38 0.156211 0.863709 0.479171
-0.800427 -0.972349 22.061600 21 24 28 0.163490 0.856184 0.490122
-1.352910 -0.615236 21.784401 87 80 74 0.649059 0.759957 -0.034463
-0.426585 0.906006 16.898800 173 112 94 -0.210466 0.973223 -0.092420
-2.318470 0.995105 16.103100 186 163 152 -0.807658 0.501359 0.310367
1.873220 0.482660 17.910601 168 45 90 0.252990 0.901753 -0.350483
1.902010 0.507721 17.931101 133 46 77 0.108465 0.838892 0.533382
1.769460 0.432279 17.947300 155 34 78 0.202856 0.970022 -0.133819
-2.065060 0.637686 16.337400 183 148 139 -0.892750 0.439238 0.100336
1.517360 0.486155 17.918800 185 49 93 -0.037265 0.947452 -0.317720
1.653060 0.434823 17.967100 146 34 72 -0.032242 0.999041 0.029639
-2.106660 0.648366 16.336700 181 144 140 -0.882166 0.470501 -0.020290
1.520890 0.494161 17.959900 163 41 83 0.008998 0.998375 0.056270
1.564510 0.489378 17.984100 154 42 81 0.076804 0.985347 0.152292
1.154940 0.511344 17.858299 203 58 108 0.411976 0.910200 -0.042558
1.191160 0.513637 17.887800 203 59 108 0.435612 0.898550 -0.053382
1.473350 0.488331 17.988199 161 38 80 0.313664 0.904123 -0.290133
-1.826340 0.965401 16.687099 169 125 119 0.260919 0.962100 -0.079282
-2.063310 0.910916 16.594601 158 119 118 -0.035866 0.747346 -0.663467
-2.018140 1.022780 16.683901 133 101 102 0.095947 0.995226 -0.017869
-1.967650 1.010910 16.671400 121 91 93 0.168174 0.774175 -0.610222
-1.947840 1.001430 16.701099 137 102 101 -0.501082 0.859676 0.099368
-2.016580 1.455140 16.835300 58 52 63 0.340900 0.903588 -0.259453
1.257530 0.483864 18.004601 174 83 113 0.305437 0.890339 -0.337645
1.347380 0.485007 18.008801 169 41 85 0.217401 0.855832 -0.469349
1.405000 0.514214 18.052401 195 89 127 -0.000497 0.983835 0.179076
-1.833970 0.983562 16.780899 137 98 96 -0.187517 0.767350 -0.613198
-1.859670 0.961897 16.769501 116 85 87 0.181805 0.770050 -0.611531
-1.823870 0.959105 16.778999 142 101 98 0.091802 0.776501 -0.623393
-1.801720 0.995094 16.793400 153 109 105 0.046873 0.812408 -0.581203
-1.177820 0.778011 17.018000 209 152 138 0.501409 0.822831 -0.267467
1.319240 0.506622 18.049700 178 61 102 0.316887 0.897199 -0.307597
1.291840 0.501798 18.072100 187 77 116 0.051863 0.998229 -0.029150
1.360520 0.500566 18.072800 196 90 128 0.354310 0.910472 -0.213317
-2.135090 0.892188 16.631701 109 79 81 -0.544812 0.561963 -0.622397
-2.147840 0.915626 16.653299 106 78 79 -0.697528 0.707693 0.112363
-2.118710 0.901405 16.635099 115 85 87 -0.463828 0.595077 -0.656313
-1.824400 0.976879 16.799601 134 95 93 -0.039003 0.783762 -0.619836
-1.343840 0.901759 17.026199 200 144 129 0.426174 0.846262 -0.319712
-1.215420 0.840376 17.044600 209 150 133 0.361384 0.891417 -0.273453
1.262110 0.481009 18.058800 166 57 94 -0.079682 0.905821 -0.416101
1.334600 0.498412 18.101900 182 80 117 0.087699 0.993613 -0.071008
-2.172960 0.404237 16.459101 133 103 107 -0.607216 0.666871 0.431940
-2.171040 0.372147 16.426701 105 85 93 -0.075697 0.474552 0.876966
-2.164240 0.864348 16.631500 102 76 80 -0.587378 0.756052 0.288744
-2.128290 0.918684 16.685499 108 79 81 -0.027121 0.732517 -0.680209
-2.005780 1.030960 16.783800 92 71 73 0.383593 0.923436 -0.011092
-1.976800 1.043610 16.789801 93 71 73 0.390138 0.871556 0.296956
1.252510 0.500438 18.154200 141 44 78 0.002950 0.885026 0.465532
-2.163220 0.677070 16.636499 98 75 80 -0.818514 0.481319 -0.313635
-2.083430 1.753700 17.105301 51 48 59 -0.283919 0.659371 -0.696147
-1.619530 1.127310 17.142000 173 124 112 0.306891 0.911599 0.273505
-1.614410 1.099820 17.120600 165 118 106 0.419348 0.804909 0.419845
-1.595310 1.132360 17.180500 163 116 104 -0.019165 0.990870 0.133455
-1.584120 1.105340 17.177900 162 114 102 0.304352 0.951718 0.040040
-1.629450 1.219900 17.203100 116 83 80 0.081080 0.930080 -0.358298
-1.565090 1.125900 17.200899 162 116 104 -0.020739 0.998050 -0.058872
0.774026 0.587284 18.091900 154 48 82 0.473395 0.868418 0.147472
-1.712150 1.210160 17.170099 58 46 57 0.292703 0.880335 -0.373276
0.681275 0.611425 18.097700 168 60 94 0.303186 0.905594 0.296610
0.739675 0.581846 18.111401 151 46 80 0.341512 0.903322 0.259575
-1.220410 0.946623 17.356600 169 113 98 0.297282 0.908741 0.292938
-1.187080 0.902276 17.368401 165 112 98 0.279244 0.956322 -0.086433
0.862066 0.601526 18.230000 170 36 85 -0.159232 0.565495 -0.809234
-2.119350 2.058260 17.388800 35 37 51 -0.296296 0.792710 -0.532747
-3.156350 0.542109 16.371901 91 95 105 -0.786131 0.523967 -0.327806
-1.592370 1.129820 17.329800 69 51 58 0.567176 0.791980 -0.226007
0.399814 0.688350 18.117701 220 82 129 0.129563 0.983619 -0.125330
0.410158 0.703101 18.193100 194 47 93 0.459282 0.864615 0.203716
0.466901 0.621660 18.263300 149 39 73 0.294492 0.918860 -0.262622
-1.819820 1.100300 17.377001 41 41 54 0.663030 0.748510 -0.011131
-1.797940 1.108250 17.371799 34 37 49 0.157146 0.727566 -0.667797
-3.148200 1.189280 16.837799 54 60 76 0.211489 0.853468 0.476303
-1.757760 1.075980 17.477400 50 53 64 -0.499633 0.854762 -0.140533
-0.685458 0.877426 17.943399 127 77 69 0.198021 0.974607 0.104539
-2.279210 1.481500 17.411501 37 40 52 -0.110721 0.915255 -0.387362
-0.448799 1.617190 18.343399 171 101 127 -0.239990 0.868162 0.434396
-0.449811 1.599560 18.344200 152 91 115 0.090561 0.759238 -0.644481
-0.446050 1.616380 18.345200 171 102 128 -0.211732 0.854881 0.473655
-0.395040 1.615540 18.391800 122 82 101 -0.595176 0.740953 0.311054
-2.433380 1.405090 17.356899 36 39 52 -0.543444 0.832658 0.106535
-1.789860 1.194460 17.599001 37 40 54 -0.183369 0.901048 -0.393051
-1.753680 1.181350 17.608299 36 39 52 -0.359065 0.904566 -0.229852
-0.394778 1.591780 18.419500 60 50 61 -0.715204 0.559503 0.418854
-2.475670 1.376180 17.357800 40 44 58 -0.386686 0.574210 -0.721635
-2.472410 1.432150 17.379499 41 44 58 -0.104545 0.646912 -0.755364
-1.788180 1.197580 17.630699 28 33 46 -0.491958 0.870424 -0.018423
-2.505160 1.340930 17.362700 45 48 62 -0.613672 0.499615 -0.611385
0.633182 2.044890 19.142099 44 44 67 -0.994308 -0.052055 -0.092960
-2.472770 1.474450 17.441299 35 40 51 -0.414615 0.557626 -0.719130
-3.018140 1.104930 17.119499 81 72 85 -0.192533 0.650462 -0.734731
-1.606370 1.871070 18.055201 35 35 45 -0.293498 0.635749 -0.713920
-3.021840 1.154140 17.148001 76 71 86 -0.192122 0.648883 -0.736234
-1.806260 1.626860 17.903799 29 34 46 -0.461390 0.513747 -0.723314
-1.743590 1.417790 17.886600 38 42 53 -0.322708 0.667623 -0.670925
-1.646930 1.895570 18.047001 27 27 39 -0.080957 0.597456 -0.797805
-1.622050 1.926040 18.083500 26 28 39 0.310495 0.743933 -0.591741
-1.564800 1.940650 18.106300 35 34 44 0.293767 0.806196 -0.513565
-0.905008 1.895000 18.414900 34 34 47 -0.244309 0.962216 -0.120224
-0.190181 2.426400 18.945700 55 57 73 -0.791302 0.472472 -0.388087
-0.167534 2.445970 18.959400 48 50 66 -0.951552 0.150688 -0.268032
-2.256960 1.472530 17.656099 23 25 37 -0.519164 0.486710 0.702554
-3.347980 0.719976 16.939301 51 60 77 -0.770059 0.520927 -0.368300
-2.243260 1.407420 17.685400 29 31 43 -0.036061 0.937074 0.347263
-0.246629 2.375980 18.949200 41 44 56 -0.185161 0.880218 -0.436957
0.332707 1.898020 19.107700 33 34 53 -0.443238 0.604822 -0.661611
0.459513 1.941020 19.187401 50 50 69 -0.640445 0.541327 -0.544789
-1.407770 2.137770 18.388100 17 14 23 -0.933989 0.239837 0.264842
-3.079170 1.283600 17.336201 59 58 73 -0.583456 0.544906 -0.602210
-2.258700 1.199500 17.715700 26 28 41 -0.062682 0.669004 -0.740611
-1.926480 1.605320 18.007999 13 18 29 -0.379590 0.549807 -0.744059
-1.436630 2.127200 18.389000 16 15 24 -0.673555 0.633488 0.380810
-2.961810 1.292120 17.455400 46 49 64 -0.563977 0.805722 -0.180947
-1.447950 2.078840 18.417601 12 14 23 -0.285051 0.633622 0.719215
1.210950 2.821240 19.955299 119 76 104 -0.192816 0.877071 -0.439964
-3.095300 1.275670 17.412100 60 59 73 -0.641309 0.765484 -0.052501
-3.093900 1.281830 17.411100 60 59 72 -0.585623 0.809833 0.034877
-2.674130 1.399770 17.663900 29 35 47 0.433842 0.700578 -0.566543
-1.449160 2.079990 18.451000 17 18 28 -0.776761 0.619556 0.113101
-3.324800 1.195240 17.285299 49 56 72 -0.458531 0.616858 -0.639715
-3.151690 1.260750 17.418501 63 61 75 -0.121674 0.693605 -0.710006
-3.128880 1.285670 17.410601 68 66 79 -0.320149 0.649448 -0.689726
-3.123720 1.278890 17.428699 64 62 76 -0.226230 0.719320 -0.656809
-3.092310 1.292370 17.429199 63 61 74 -0.720912 0.678025 -0.143416
-1.411680 2.046910 18.502701 21 20 29 -0.970755 0.239998 0.005934
-2.663860 1.396570 17.736000 32 37 48 -0.292262 0.907770 0.300894
-1.794440 1.810130 18.268101 27 31 41 -0.360901 0.792272 -0.491991
-3.365930 1.153620 17.336700 45 50 66 -0.898195 0.439596 -0.000545
-3.683690 1.043030 17.176800 40 52 70 0.121824 0.677619 -0.725253
-0.445859 2.213370 19.127501 25 30 46 -0.770584 0.302341 -0.561063
-2.734600 1.696270 17.879101 35 41 53 0.515565 0.695364 -0.500661
-2.686540 1.673250 17.875299 42 47 57 0.467928 0.694962 -0.545959
-2.631930 1.652440 17.891500 42 46 56 0.409477 0.741009 -0.532199
-2.659020 1.676100 17.896099 38 43 53 0.409734 0.688574 -0.598317
-0.477436 2.133260 19.130699 23 29 44 -0.697966 0.590509 -0.405145
-3.714610 1.102860 17.274300 66 73 87 -0.412225 0.643792 -0.644672
-0.495391 2.095850 19.133101 21 26 41 -0.734374 0.309876 -0.603881
-3.744540 1.017670 17.260201 70 78 92 -0.455212 0.612366 -0.646366
-3.713490 1.167500 17.298901 64 72 85 -0.538016 0.592720 -0.599351
-0.781406 1.906540 18.965900 14 17 25 -0.139436 0.975408 0.170694
-0.446184 2.140260 19.214100 15 16 29 -0.807291 0.085763 -0.583889
-3.748260 1.027320 17.301399 89 91 101 -0.286751 0.926374 -0.244143
-1.998060 1.654040 18.330299 22 26 38 -0.663435 0.698120 0.269227
-3.765890 0.987035 17.298700 103 105 116 -0.354061 0.624557 -0.696110
-3.757260 1.017530 17.323200 64 72 88 -0.536331 0.698181 -0.474228
0.428989 2.445730 19.775499 25 20 35 0.394544 0.916235 -0.069629
-3.796350 0.925356 17.352800 64 72 90 -0.803630 0.518402 -0.292297
-1.417640 1.429720 18.710400 32 36 50 -0.647108 0.762298 -0.012356
-1.809820 1.764680 18.628799 26 28 40 -0.005248 0.694646 0.719333
-2.061780 1.676550 18.530899 16 20 31 -0.862611 0.407669 0.299513
-1.177630 1.653480 18.983299 31 32 41 -0.262802 0.833552 -0.485928
-2.142150 1.147390 18.435101 16 22 34 -0.500845 0.669517 -0.548545
-2.244830 1.200790 18.427500 11 15 23 -0.154817 0.962685 -0.221965
-2.172660 1.122360 18.434999 13 17 27 -0.451637 0.651271 -0.609812
-3.187310 1.749310 18.064100 38 43 56 -0.779447 0.626466 0.001761
-3.187300 1.772040 18.089899 38 43 56 -0.743802 0.668327 -0.009829
-2.695920 1.669380 18.300800 43 45 51 -0.378778 0.540281 -0.751415
-3.198850 1.730840 18.097601 32 36 49 -0.812032 0.582020 0.043085
0.079478 2.317930 19.978300 26 30 45 -0.468270 0.199968 -0.860660
-2.971720 1.555880 18.287001 25 31 44 0.230772 0.858176 -0.458560
-2.930580 1.656190 18.347601 19 23 35 -0.443944 0.729891 0.519782
-0.261212 2.144400 19.847401 18 22 33 -0.271882 0.671570 -0.689256
-0.276912 2.171370 19.864201 19 24 37 -0.107034 0.382272 -0.917830
-0.278005 2.173370 19.864000 18 23 36 -0.233204 0.334372 -0.913133
-0.331546 2.161670 19.863600 23 28 40 0.073260 0.918819 -0.387819
-0.297384 2.163190 19.882999 24 29 42 0.016015 0.536488 -0.843756
-0.261583 2.173930 19.895500 22 27 40 0.038367 0.547391 -0.835997
-2.721000 1.671290 18.632200 14 19 27 -0.809029 0.495314 0.316443
-0.330646 2.174970 19.982300 21 26 39 -0.153228 0.375955 -0.913881
-3.762170 0.731907 17.994699 31 42 58 -0.452472 0.553405 -0.699294
-1.471100 1.682450 19.336000 10 14 23 0.094476 0.614065 -0.783581
-1.532660 1.626930 19.327400 17 22 30 0.061757 0.988567 -0.137556
-3.783570 1.490010 18.142599 66 71 83 0.568982 0.777109 0.269002
-3.109590 1.391770 18.500200 28 35 48 0.117601 0.689140 0.715022
-1.085890 1.922150 19.618200 23 26 39 -0.909772 0.291499 0.295538
0.669562 2.319750 20.602699 11 16 27 -0.132623 0.985335 0.107357
-1.655560 1.618030 19.323900 48 51 55 0.119182 0.536598 -0.835379
0.728310 2.522270 20.755800 16 17 28 -0.199205 0.976479 0.082502
-3.631970 1.428750 18.307400 29 38 53 -0.863252 0.487653 -0.130347
0.460811 2.483520 20.667400 34 39 55 -0.495763 0.674996 -0.546442
0.447750 2.501770 20.655701 34 40 55 -0.746478 0.554158 -0.368347
0.539829 2.525790 20.718201 36 41 56 -0.063308 0.996652 -0.051736
-1.440320 1.328730 19.562599 19 25 36 -0.724679 0.583062 -0.367260
0.153900 2.045230 20.465099 29 32 45 -0.534983 0.094402 -0.839572
0.587924 2.541020 20.771200 28 32 46 -0.392758 0.919023 0.033734
-1.466400 1.299740 19.562599 15 18 29 -0.690019 0.620821 -0.372095
-2.433310 1.071210 19.102900 8 13 23 -0.095816 0.483597 -0.870031
-1.002030 1.565520 20.004700 55 61 70 0.438996 0.664156 -0.605128
-0.925933 1.591120 20.077900 43 48 55 0.335460 0.781993 -0.525313
-2.247210 1.211690 19.370399 7 11 19 -0.931242 0.321153 0.172189
-2.216250 1.314150 19.417200 6 10 17 -0.380599 0.923646 0.044977
-2.210200 1.290530 19.407801 6 10 18 -0.311179 0.879656 0.359686
-2.189070 1.318690 19.434601 5 10 17 -0.291165 0.951375 0.100545
-2.650910 1.033430 19.195400 12 18 27 -0.060994 0.961767 0.266990
-2.650900 1.033560 19.195400 12 18 27 -0.066749 0.961559 0.266362
-2.559650 1.021230 19.250900 9 14 23 0.247232 0.935036 -0.254134
-2.679930 1.028910 19.209400 13 18 26 -0.065839 0.961893 0.265382
-2.679890 1.029080 19.209299 13 18 26 -0.067937 0.961747 0.265383
-4.437940 0.222377 18.468599 122 119 104 0.231606 0.529407 -0.816141
-2.322080 1.032290 19.769699 54 58 59 0.616960 0.782819 0.080957
-2.261260 0.945322 19.847601 41 44 47 0.524036 0.829277 0.194129
-0.120311 1.881220 21.069500 25 30 44 -0.515289 0.853780 0.074414
-1.298750 1.354570 20.449400 5 10 17 0.082929 0.810478 0.579868
-2.938470 1.014960 19.648300 64 63 63 0.313652 0.578308 -0.753115
-0.041266 1.901710 21.318001 17 20 31 0.385532 0.648549 -0.656315
0.006791 1.865090 21.341299 12 15 25 -0.233461 0.971233 0.046921
-2.953570 1.049940 19.724501 118 114 105 0.305496 0.951935 0.022185
-2.973670 1.153700 19.713699 135 126 110 0.049373 0.734728 -0.676563
-0.327047 1.116610 21.246599 11 15 25 -0.811541 -0.015921 -0.584078
0.514380 1.878100 21.707300 12 13 20 0.128848 0.937575 0.323036
0.380351 1.804500 21.667999 9 12 21 -0.487461 0.797744 -0.354946
0.400600 1.844680 21.653700 7 10 19 -0.489479 0.714912 -0.499311
0.371884 1.862930 21.655500 12 14 25 -0.699166 0.653558 -0.289876
0.365364 1.858670 21.657900 12 15 25 -0.460298 0.701075 -0.544628
0.281502 1.715190 21.700199 10 13 22 -0.937409 0.214955 -0.273967
-0.321360 0.999647 21.523600 11 15 25 -0.832246 -0.017385 -0.554134
-0.804222 0.842611 21.365101 43 47 49 -0.294766 0.802945 -0.518066
-1.775970 -1.564150 21.025200 121 110 95 -0.694055 0.214962 -0.687080
-1.840240 0.248013 20.840099 107 102 93 0.301391 0.816879 0.491805
-0.575812 0.078296 21.577000 6 10 19 -0.020075 0.928998 -0.369541
-0.543026 0.096152 21.593700 6 10 20 -0.145406 0.857062 -0.494269
-0.379944 1.114900 21.614901 31 36 46 -0.745818 -0.017336 -0.665924
-1.801020 -1.644940 21.025200 126 116 101 -0.688167 0.214435 -0.693141
-0.550286 0.132524 21.628000 5 9 19 -0.271706 0.936649 -0.221051
-0.657706 0.239496 21.606501 10 14 24 -0.184759 0.965311 -0.184496
-1.939620 0.321900 20.882200 124 116 100 0.329918 0.942439 0.054426
-2.236290 0.445656 20.759199 129 117 102 0.453933 0.571580 -0.683550
-2.083000 0.463205 20.846500 122 111 95 0.556094 0.830241 0.038201
-1.232530 -0.247684 21.404800 16 19 27 -0.585482 0.251595 -0.770656
0.365085 2.225900 22.084900 14 13 23 -0.841217 -0.133516 -0.523954
-1.283590 -0.345888 21.397699 24 26 31 -0.731776 0.116554 -0.671505
-1.233100 -0.118530 21.459200 33 34 36 0.101108 0.303201 -0.947548
-0.008344 1.703550 21.991600 55 53 54 -0.715872 -0.102923 -0.690605
-1.609210 -0.053560 21.312401 88 84 78 0.105448 0.970620 0.216279
0.327828 1.913950 22.278799 122 118 103 -0.819180 -0.135408 -0.557323
-0.834977 -1.014620 22.066401 21 23 28 0.292185 0.864820 0.408306
-0.871352 -1.125890 22.151800 69 65 60 0.134106 0.863362 0.486438
-0.866950 -1.139590 22.160801 73 69 63 0.205791 0.865777 0.456157
-0.283256 0.438129 22.283300 17 21 30 -0.888776 0.383608 -0.250842
-1.101910 -0.807352 22.016800 94 84 72 0.250706 0.849878 0.463522
-0.933976 -1.145550 22.202400 106 99 87 0.205781 0.865771 0.456174
-0.333231 0.550889 22.310801 50 51 53 -0.913953 0.123820 -0.386469
-0.333484 0.644853 22.276899 34 35 40 -0.916349 0.130528 -0.378507
-0.884712 -1.219640 22.252001 89 81 72 -0.306839 0.677832 -0.668127
-0.929226 -1.195470 22.276501 126 115 105 0.470375 0.829276 -0.301743
-0.369489 1.216160 16.106501 180 125 109 -0.845315 0.334149 -0.416879
-0.339787 1.189440 16.114300 171 121 105 -0.762241 0.346099 -0.546995
-0.344514 1.058200 16.145000 192 127 118 -0.851222 0.355179 -0.386354
3.708000 0.472302 17.623899 215 114 158 -0.224355 0.651505 -0.724711
-0.289460 1.214390 16.299400 169 109 93 -0.775240 0.529288 -0.344758
-0.495349 0.709716 16.138800 181 129 112 -0.753998 0.436941 -0.490479
-0.362900 1.144380 16.360300 191 133 117 -0.788658 0.536185 -0.300872
3.463650 0.449551 17.717699 219 99 149 -0.345042 0.875277 -0.338876
-0.544470 0.958559 16.252001 146 110 97 -0.754644 0.317205 -0.574364
-0.368350 1.159340 16.401300 181 121 105 -0.900604 0.215784 -0.377291
3.489290 0.569129 17.854300 175 63 111 -0.397756 0.733324 -0.551386
3.398460 0.448430 17.810101 202 139 169 0.000586 0.911594 -0.411091
3.452760 0.546519 17.850800 184 98 138 -0.603852 0.485758 -0.631983
2.150710 0.525875 17.821100 205 65 120 0.049969 0.991429 -0.120709
1.589960 2.200910 18.024200 76 81 110 -0.789483 0.080572 0.608461
1.589240 2.081390 18.059999 122 124 148 -0.680727 0.239260 0.692362
1.853760 0.525474 17.948000 128 40 73 0.039539 0.720615 -0.692207
-0.920017 0.073171 16.688900 222 165 146 -0.859785 0.347494 -0.374190
1.822360 0.479764 17.931101 150 37 78 0.198223 0.871114 -0.449298
1.694810 0.498974 17.964100 155 43 81 0.077692 0.986421 0.144696
-2.051390 0.808413 16.507700 184 139 133 -0.823770 0.411399 -0.390070
1.521920 0.489786 18.008101 176 69 106 0.048282 0.993631 0.101811
-1.972980 1.013290 16.648100 140 101 100 0.240031 0.643853 -0.726525
-2.107090 0.869608 16.625601 128 94 95 0.179926 0.858446 -0.480310
-1.891010 0.972788 16.716499 129 93 93 0.155858 0.984858 -0.075915
-1.829070 0.969630 16.747101 155 110 105 -0.440732 0.473871 -0.762366
-2.046360 1.021360 16.702200 108 82 85 0.402998 0.725753 -0.557563
-1.947730 0.988016 16.737801 131 98 97 0.262198 0.812842 -0.520134
-1.865800 1.000300 16.799999 114 85 85 -0.270227 0.960957 -0.059495
-1.857070 0.961699 16.832199 82 66 73 0.221200 0.652080 -0.725164
-1.833420 0.985743 16.815500 128 90 87 0.342988 0.655118 -0.673186
-1.783600 1.026670 16.847099 148 103 97 -0.426618 0.580017 -0.693958
-1.765560 1.075150 16.892000 149 103 98 -0.246657 0.559609 -0.791200
-1.754590 1.040080 16.891800 152 106 99 -0.138791 0.982574 -0.123635
-1.724850 1.037400 16.873600 174 122 110 0.030387 0.585126 -0.810373
-1.705760 1.091690 16.920500 153 110 104 -0.624924 0.448669 -0.638878
1.247950 0.532906 18.106701 184 84 117 0.444318 0.891776 -0.085544
-1.839160 1.004940 16.860001 101 74 75 -0.335954 0.934983 0.113766
-1.827200 1.045620 16.886299 89 66 70 -0.608275 0.720441 -0.333116
-1.840110 1.038510 16.870100 94 70 71 -0.507544 0.815390 0.278458
-1.794660 1.030970 16.876400 124 87 86 -0.007876 0.747489 -0.664228
-1.802540 1.079060 16.904301 108 76 77 0.004261 0.695411 -0.718599
-1.794690 1.081240 16.909500 113 79 80 -0.513305 0.812659 -0.275867
-1.726900 1.095170 16.947001 154 108 100 -0.771539 0.583625 -0.253198
-0.604260 0.717885 17.398600 188 124 105 0.247904 0.903259 -0.350238
-0.558738 0.657802 17.401400 172 106 88 0.432256 0.825877 0.362053
-0.560058 0.662471 17.399599 172 106 88 0.438669 0.825419 0.355320
-0.542717 0.749157 17.502600 171 106 88 0.245675 0.782692 -0.571872
-2.502840 1.224880 16.796600 101 82 89 -0.566852 0.815217 -0.118747
-1.246710 0.942815 17.293600 174 118 103 0.448393 0.670458 -0.591126
0.802926 0.595390 18.230000 171 45 90 -0.270943 0.418422 -0.866899
0.861588 0.602577 18.230000 176 36 87 -0.192028 0.524950 -0.829188
-0.870130 0.933156 17.550400 154 101 90 -0.037764 0.999184 0.014313
0.855025 0.666492 18.284500 229 77 133 0.183778 0.622857 -0.760444
0.885713 0.693759 18.295099 217 67 125 0.214405 0.619297 -0.755316
-1.468980 1.069800 17.330601 127 88 81 -0.102207 0.992082 -0.072984
-0.813100 0.915187 17.605200 146 97 85 0.463013 0.811210 -0.357152
0.694528 0.589726 18.259501 182 98 126 -0.339757 0.940423 -0.013038
0.730940 0.591396 18.243799 179 73 110 -0.240365 0.957526 -0.159278
-1.218040 0.979484 17.459499 126 87 81 0.390820 0.650892 -0.650844
-2.369700 1.384490 17.037100 50 49 61 0.058665 0.765772 -0.640430
-1.312070 0.995650 17.463301 100 68 68 -0.039451 0.935254 -0.351773
-1.274840 0.974731 17.461700 112 77 72 0.320749 0.893038 -0.315599
-1.275080 0.999262 17.486099 88 61 61 0.374602 0.865876 -0.331560
-1.242820 0.965115 17.509399 94 64 62 0.278565 0.766916 -0.578136
-1.213160 0.977890 17.511600 94 65 63 0.419678 0.842778 -0.337038
0.871406 0.765232 18.412201 117 48 84 0.026742 0.714662 0.698958
-3.226730 0.404839 16.559000 49 56 76 -0.571984 0.629413 -0.525998
-3.215000 0.529477 16.571199 47 55 74 -0.729067 0.681040 0.068163
-3.204160 0.473755 16.563000 48 57 76 -0.833854 0.491832 -0.250576
-1.346430 0.999723 17.477800 81 56 59 0.473379 0.822950 -0.314113
-3.275620 0.443678 16.610001 41 50 69 -0.648654 0.700580 0.297381
0.212068 0.799448 18.290400 160 84 112 -0.179128 0.879049 -0.441799
-2.594110 1.261930 17.173800 44 45 57 -0.896711 0.403072 0.182872
-2.501170 1.344150 17.314301 39 43 56 -0.666005 0.466208 -0.582312
-2.019000 1.079320 17.508101 24 30 44 -0.156576 0.768899 -0.619902
0.293041 0.970017 18.574499 193 149 176 0.185076 0.807880 -0.559533
-2.443580 1.446200 17.388399 39 43 55 -0.112275 0.647993 -0.753326
-2.384120 1.453510 17.425100 30 35 48 0.186286 0.701885 -0.687500
-3.398670 0.670084 16.902300 45 53 71 -0.808959 0.576277 0.116144
-3.414600 0.665756 16.942600 39 48 66 -0.712995 0.538653 -0.448877
-2.155960 0.971276 17.538000 36 39 53 -0.478792 0.860166 -0.175705
-3.399760 0.692739 16.982599 56 66 85 -0.643877 0.507318 -0.572757
-3.378460 0.688749 16.985100 59 68 86 -0.729106 0.581205 -0.361393
-1.868590 1.219090 17.747400 22 27 39 -0.822029 0.495970 -0.279791
-0.862330 1.809140 18.324499 32 32 42 0.184160 0.918562 0.349755
-2.449690 1.428310 17.627001 38 40 52 -0.924787 0.358624 0.127114
-0.386068 1.896770 18.621401 31 33 47 -0.807328 0.081343 -0.584470
-3.470180 0.765776 17.142401 38 48 66 -0.769675 0.638207 -0.017072
-2.419270 1.372710 17.660900 34 37 49 0.653204 0.726320 0.213972
-3.042060 1.295820 17.402000 52 51 64 -0.595103 0.531672 -0.602642
-3.731650 1.003830 17.174500 67 76 89 -0.478762 0.513728 -0.711948
-3.745310 0.978147 17.207600 53 63 78 -0.120547 0.568639 -0.813706
-1.793170 1.737870 18.130501 12 16 27 -0.520133 0.460838 -0.719089
-2.686530 1.651110 17.847500 68 68 73 0.084416 0.675449 -0.732559
-2.329280 1.668290 18.107599 13 18 27 0.674499 0.738160 0.013067
-2.316740 1.677690 18.133400 12 16 26 0.625880 0.777449 -0.062026
-2.284390 1.657730 18.157101 11 15 25 0.644806 0.758915 0.090952
-2.287700 1.644850 18.187901 10 15 24 0.638964 0.735945 0.223852
-3.216530 1.657050 17.770000 68 70 77 -0.355267 0.909716 -0.214948
-1.626990 1.864390 18.548401 19 22 32 -0.383524 0.879788 0.280860
-2.179640 1.520920 18.316200 23 27 36 -0.635054 0.650749 0.416211
-2.163290 1.527520 18.344900 23 28 35 -0.539250 0.796016 0.274898
-1.552760 1.915790 18.624901 15 17 26 -0.126088 0.953497 -0.273763
0.194755 1.947710 19.527300 59 62 75 -0.958017 0.263007 0.114154
-3.657650 1.066530 17.703699 29 40 56 0.092502 0.637400 -0.764961
-1.493600 1.584940 18.761000 11 16 29 0.437002 0.529019 -0.727440
0.187121 1.931820 19.568501 25 28 43 -0.693096 0.308277 -0.651601
-2.467590 1.725350 18.334000 22 27 34 -0.385478 0.829464 0.404224
0.178283 1.954030 19.599800 37 39 53 -0.969239 0.237566 0.064323
-3.253950 1.309750 18.053801 100 96 97 0.334638 0.521241 -0.785064
-3.254760 1.338980 18.077700 84 81 87 0.383078 0.460387 -0.800809
0.277066 2.330540 19.787901 24 25 38 0.086173 0.808346 -0.582366
-3.491700 1.433800 18.006399 78 82 89 0.833597 0.547002 -0.076841
-3.469980 1.361470 18.036301 64 72 85 0.808008 0.576779 -0.120204
-3.379190 1.546410 18.120399 37 43 58 -0.573342 0.710734 -0.407599
-3.310820 1.538310 18.153400 37 44 57 -0.776448 0.531645 0.338351
-3.339800 1.532940 18.176100 33 41 55 -0.310519 0.583483 -0.750417
-3.308750 1.540070 18.184700 29 37 50 -0.447741 0.765052 -0.462843
-3.410240 1.443160 18.192101 24 33 46 -0.722068 0.510780 -0.466607
-3.338460 1.547330 18.200199 30 38 51 -0.157423 0.669566 -0.725878
-3.442770 1.422650 18.191401 33 41 55 -0.864014 0.500339 0.056040
-2.225300 1.186650 18.842600 12 19 32 -0.045554 0.993809 -0.101331
-3.873900 0.658969 18.086800 53 60 72 -0.478753 0.444873 -0.756891
-3.874420 0.636560 18.105600 51 57 67 -0.057460 0.758943 -0.648617
-3.855530 0.701238 18.108400 58 63 76 -0.446072 0.673944 -0.588913
-3.442100 1.428930 18.232401 29 38 52 -0.438123 0.894715 0.086794
-1.359500 1.666000 19.301100 25 30 38 -0.009438 0.989550 -0.143880
-3.285450 1.350970 18.441099 20 27 40 -0.792944 0.514743 -0.326005
-1.392690 1.733220 19.364700 33 39 50 0.375470 0.745312 -0.550938
-3.343490 1.287360 18.467800 19 26 38 -0.275502 0.923690 0.266264
-2.883030 1.491780 18.687000 40 44 52 -0.388534 0.886369 -0.251776
-1.421220 1.737930 19.386400 28 33 43 0.615811 0.706911 -0.347929
-2.917090 1.455520 18.706499 28 34 45 -0.664744 0.723855 0.184794
-1.390150 1.760540 19.445200 17 21 30 -0.055194 0.919730 -0.388652
-2.229950 1.404650 19.151899 15 20 28 -0.288825 0.923555 -0.252244
-2.176150 1.414120 19.186199 20 25 33 -0.671617 0.688928 0.272598
-0.569594 2.093250 19.955000 9 14 26 -0.809102 -0.008898 -0.587601
-3.460240 1.304370 18.612600 21 30 44 0.712675 0.699637 -0.051010
-1.738790 1.405910 19.530701 6 9 15 -0.129655 0.889988 0.437162
0.571813 2.360110 20.573200 21 25 38 0.146401 0.966246 -0.211981
0.572180 2.355590 20.570000 21 25 38 0.160252 0.957519 -0.239744
-2.559990 1.012790 19.215700 9 13 21 0.247716 0.925867 -0.285319
-1.773260 1.394660 19.529900 7 10 17 0.184479 0.875274 0.447060
0.567642 2.378590 20.600000 24 30 43 -0.036456 0.995709 -0.085059
-2.590630 1.048340 19.209499 9 14 22 -0.063095 0.962000 0.265661
-2.182980 1.306400 19.399401 9 12 20 -0.400019 0.787957 0.468090
